-19.386000 36.841000 1.712000 132.000000 120.000000 94.000000
-18.924000 36.841000 1.791000 154.000000 154.000000 146.000000
-19.238000 36.842000 1.729000 158.000000 158.000000 148.000000
-19.275000 36.841000 1.731000 157.000000 158.000000 152.000000
-19.341000 36.841000 1.722000 133.000000 119.000000 82.000000
-18.928000 36.840000 1.795000 153.000000 153.000000 143.000000
-19.260000 36.846000 1.697000 157.000000 159.000000 148.000000
-19.059000 36.845000 1.735000 154.000000 156.000000 145.000000
-19.381000 36.843000 1.696000 128.000000 112.000000 79.000000
-19.296000 36.849000 1.661000 158.000000 161.000000 152.000000
-19.191000 36.841000 1.747000 155.000000 155.000000 143.000000
-18.875000 36.841000 1.802000 153.000000 153.000000 143.000000
-19.308000 36.847000 1.675000 157.000000 161.000000 147.000000
-18.999000 36.841000 1.779000 152.000000 153.000000 145.000000
-19.304000 36.843000 1.712000 159.000000 160.000000 152.000000
-19.129000 36.839000 1.772000 157.000000 153.000000 144.000000
-19.163000 36.843000 1.730000 157.000000 155.000000 143.000000
-18.921000 36.841000 1.792000 154.000000 154.000000 146.000000
-19.128000 36.844000 1.734000 156.000000 158.000000 147.000000
-19.190000 36.839000 1.767000 154.000000 154.000000 142.000000
-19.222000 36.842000 1.730000 157.000000 157.000000 147.000000
-19.048000 36.846000 1.617000 155.000000 155.000000 145.000000
-18.898000 36.842000 1.778000 155.000000 152.000000 145.000000
-19.312000 36.853000 1.389000 163.000000 167.000000 153.000000
-19.019000 36.845000 1.722000 155.000000 155.000000 145.000000
-19.338000 36.853000 1.523000 104.000000 95.000000 64.000000
-18.999000 36.845000 1.644000 153.000000 155.000000 144.000000
-19.097000 36.847000 1.623000 154.000000 157.000000 146.000000
-19.207000 36.850000 1.499000 160.000000 162.000000 149.000000
-19.076000 36.847000 1.580000 155.000000 158.000000 147.000000
-19.050000 36.846000 1.694000 156.000000 156.000000 144.000000
-19.265000 36.852000 1.412000 161.000000 164.000000 155.000000
-19.169000 36.849000 1.534000 160.000000 160.000000 148.000000
-18.967000 36.844000 1.679000 152.000000 153.000000 145.000000
-18.943000 36.843000 1.746000 152.000000 153.000000 145.000000
-19.163000 36.850000 1.460000 161.000000 163.000000 152.000000
-18.909000 36.842000 1.771000 152.000000 153.000000 145.000000
-18.963000 36.844000 1.724000 156.000000 156.000000 146.000000
-19.289000 36.853000 1.420000 162.000000 165.000000 156.000000
-19.288000 36.853000 1.419000 162.000000 165.000000 156.000000
-19.148000 36.849000 1.541000 160.000000 161.000000 147.000000
-19.267000 36.853000 1.332000 165.000000 166.000000 158.000000
-18.879000 36.841000 1.787000 152.000000 152.000000 142.000000
-19.174000 36.850000 1.429000 158.000000 164.000000 152.000000
-19.279000 36.851000 1.582000 161.000000 161.000000 153.000000
-19.045000 36.846000 1.613000 155.000000 156.000000 148.000000
-19.027000 36.846000 1.655000 154.000000 156.000000 145.000000
-19.163000 36.849000 1.619000 156.000000 158.000000 145.000000
-18.943000 36.843000 1.702000 152.000000 153.000000 145.000000
-19.252000 36.851000 1.491000 160.000000 162.000000 151.000000
-19.372000 36.853000 1.591000 145.000000 119.000000 70.000000
-19.222000 36.850000 1.553000 160.000000 160.000000 148.000000
-19.061000 36.846000 1.626000 156.000000 156.000000 146.000000
-18.844000 36.841000 1.802000 153.000000 154.000000 148.000000
-19.343000 36.853000 1.501000 122.000000 113.000000 74.000000
-18.978000 36.844000 1.707000 154.000000 156.000000 145.000000
-19.097000 36.847000 1.634000 155.000000 158.000000 147.000000
-19.276000 36.853000 1.334000 166.000000 169.000000 160.000000
-19.030000 36.846000 1.648000 155.000000 157.000000 146.000000
-19.321000 36.853000 1.503000 156.000000 166.000000 158.000000
-19.301000 36.851000 1.609000 162.000000 159.000000 150.000000
-18.853000 36.841000 1.783000 152.000000 155.000000 144.000000
-19.290000 36.854000 1.309000 160.000000 174.000000 159.000000
-19.130000 36.847000 1.678000 156.000000 156.000000 146.000000
-19.102000 36.848000 1.521000 159.000000 161.000000 150.000000
-19.322000 36.855000 1.280000 167.000000 171.000000 172.000000
-19.128000 36.848000 1.585000 156.000000 158.000000 145.000000
-19.132000 36.849000 1.539000 160.000000 160.000000 148.000000
-19.322000 36.854000 1.400000 163.000000 165.000000 162.000000
-19.072000 36.846000 1.663000 153.000000 156.000000 145.000000
-19.153000 36.848000 1.622000 157.000000 159.000000 146.000000
-19.271000 36.853000 1.375000 163.000000 164.000000 156.000000
-19.129000 36.848000 1.663000 155.000000 157.000000 146.000000
-18.916000 36.842000 1.776000 152.000000 153.000000 145.000000
-18.845000 36.841000 1.793000 153.000000 155.000000 144.000000
-19.264000 36.852000 1.448000 160.000000 163.000000 152.000000
-19.343000 36.853000 1.527000 120.000000 105.000000 72.000000
-19.015000 36.845000 1.706000 155.000000 155.000000 145.000000
-19.193000 36.849000 1.607000 155.000000 159.000000 145.000000
-19.211000 36.850000 1.527000 160.000000 160.000000 148.000000
-19.131000 36.848000 1.605000 155.000000 158.000000 147.000000
-19.239000 36.851000 1.550000 159.000000 159.000000 147.000000
-19.326000 36.852000 1.593000 163.000000 164.000000 150.000000
-19.269000 36.851000 1.590000 160.000000 160.000000 150.000000
-19.394000 36.857000 1.223000 155.000000 149.000000 123.000000
-19.284000 36.852000 1.473000 162.000000 163.000000 155.000000
-19.219000 36.850000 1.629000 156.000000 158.000000 147.000000
-19.386000 36.856000 1.307000 133.000000 126.000000 100.000000
-19.327000 36.854000 1.408000 176.000000 178.000000 165.000000
-19.316000 36.853000 1.500000 159.000000 169.000000 161.000000
-19.217000 36.850000 1.639000 156.000000 158.000000 147.000000
-19.267000 36.851000 1.545000 159.000000 162.000000 153.000000
-19.230000 36.851000 1.484000 161.000000 163.000000 152.000000
-19.223000 36.850000 1.610000 155.000000 158.000000 147.000000
-19.287000 36.853000 1.428000 160.000000 163.000000 154.000000
-19.006000 36.845000 1.726000 153.000000 153.000000 143.000000
-18.994000 36.845000 1.642000 153.000000 155.000000 144.000000
-19.187000 36.850000 1.510000 162.000000 160.000000 147.000000
-19.300000 36.851000 1.605000 161.000000 158.000000 149.000000
-18.997000 36.844000 1.705000 154.000000 156.000000 145.000000
-19.375000 36.854000 1.521000 138.000000 114.000000 70.000000
-19.160000 36.850000 1.495000 159.000000 161.000000 150.000000
-19.178000 36.849000 1.648000 157.000000 157.000000 145.000000
-19.364000 36.855000 1.348000 131.000000 113.000000 65.000000
-19.388000 36.857000 1.210000 151.000000 137.000000 111.000000
-19.103000 36.848000 1.573000 157.000000 159.000000 146.000000
-19.313000 36.853000 1.398000 164.000000 168.000000 153.000000
-19.374000 36.855000 1.371000 138.000000 120.000000 74.000000
-19.253000 36.852000 1.475000 160.000000 162.000000 151.000000
-19.260000 36.852000 1.441000 161.000000 163.000000 152.000000
-19.259000 36.853000 1.364000 166.000000 166.000000 156.000000
-19.375000 36.855000 1.366000 121.000000 104.000000 60.000000
-19.282000 36.852000 1.478000 162.000000 163.000000 155.000000
-19.101000 36.848000 1.574000 157.000000 159.000000 146.000000
-19.158000 36.850000 1.451000 160.000000 162.000000 151.000000
-19.280000 36.852000 1.480000 162.000000 163.000000 155.000000
-19.182000 36.850000 1.534000 159.000000 159.000000 147.000000
-19.265000 36.852000 1.496000 162.000000 163.000000 155.000000
-19.255000 36.851000 1.500000 161.000000 163.000000 152.000000
-19.147000 36.848000 1.617000 156.000000 158.000000 145.000000
-18.976000 36.844000 1.726000 155.000000 155.000000 147.000000
-19.222000 36.850000 1.599000 156.000000 159.000000 148.000000
-19.322000 36.854000 1.310000 165.000000 171.000000 167.000000
-19.311000 36.854000 1.325000 167.000000 169.000000 155.000000
-19.282000 36.851000 1.581000 160.000000 160.000000 152.000000
-19.017000 36.846000 1.624000 154.000000 155.000000 147.000000
-19.377000 36.856000 1.211000 144.000000 118.000000 67.000000
-19.092000 36.847000 1.598000 155.000000 159.000000 145.000000
-19.021000 36.845000 1.652000 154.000000 156.000000 145.000000
-19.168000 36.849000 1.533000 160.000000 160.000000 148.000000
-19.241000 36.851000 1.549000 160.000000 160.000000 148.000000
-18.945000 36.844000 1.689000 153.000000 154.000000 146.000000
-19.217000 36.850000 1.537000 160.000000 160.000000 148.000000
-19.302000 36.852000 1.545000 162.000000 163.000000 155.000000
-19.062000 36.847000 1.613000 156.000000 158.000000 147.000000
-19.293000 36.852000 1.574000 161.000000 163.000000 152.000000
-19.119000 36.848000 1.595000 155.000000 158.000000 147.000000
-19.161000 36.849000 1.507000 159.000000 161.000000 148.000000
-19.094000 36.847000 1.623000 155.000000 157.000000 146.000000
-19.087000 36.847000 1.612000 153.000000 156.000000 145.000000
-19.299000 36.854000 1.296000 163.000000 169.000000 169.000000
-19.375000 36.856000 1.276000 116.000000 99.000000 43.000000
-18.896000 36.842000 1.743000 154.000000 154.000000 146.000000
-19.051000 36.846000 1.668000 151.000000 157.000000 145.000000
-18.956000 36.844000 1.677000 157.000000 154.000000 147.000000
-19.285000 36.853000 1.365000 166.000000 167.000000 159.000000
-19.301000 36.852000 1.597000 162.000000 159.000000 150.000000
-19.092000 36.847000 1.578000 154.000000 160.000000 148.000000
-19.091000 36.847000 1.612000 153.000000 156.000000 145.000000
-19.339000 36.853000 1.460000 108.000000 95.000000 60.000000
-19.341000 36.855000 1.267000 120.000000 107.000000 75.000000
-19.319000 36.853000 1.475000 161.000000 163.000000 158.000000
-19.381000 36.856000 1.309000 117.000000 103.000000 76.000000
-19.148000 36.849000 1.550000 157.000000 161.000000 147.000000
-19.036000 36.846000 1.615000 154.000000 155.000000 147.000000
-19.298000 36.852000 1.543000 162.000000 163.000000 155.000000
-19.311000 36.852000 1.536000 159.000000 164.000000 158.000000
-19.297000 36.853000 1.375000 164.000000 167.000000 160.000000
-19.179000 36.849000 1.550000 156.000000 160.000000 146.000000
-19.341000 36.854000 1.357000 130.000000 117.000000 83.000000
-19.219000 36.851000 1.402000 158.000000 164.000000 154.000000
-19.098000 36.848000 1.556000 157.000000 161.000000 147.000000
-19.148000 36.848000 1.625000 156.000000 158.000000 145.000000
-19.377000 36.856000 1.212000 144.000000 118.000000 67.000000
-18.921000 36.842000 1.770000 152.000000 153.000000 145.000000
-19.129000 36.848000 1.552000 160.000000 160.000000 148.000000
-19.196000 36.849000 1.646000 156.000000 156.000000 146.000000
-19.090000 36.846000 1.704000 155.000000 155.000000 143.000000
-19.382000 36.855000 1.434000 128.000000 107.000000 60.000000
-19.179000 36.850000 1.509000 162.000000 160.000000 147.000000
-19.268000 36.851000 1.569000 158.000000 160.000000 149.000000
-18.901000 36.842000 1.775000 152.000000 152.000000 144.000000
-19.053000 36.846000 1.606000 154.000000 155.000000 147.000000
-19.232000 36.850000 1.566000 159.000000 161.000000 148.000000
-19.269000 36.851000 1.566000 159.000000 161.000000 150.000000
-19.374000 36.855000 1.392000 134.000000 112.000000 65.000000
-19.122000 36.848000 1.563000 157.000000 159.000000 146.000000
-19.249000 36.851000 1.484000 160.000000 162.000000 151.000000
-18.845000 36.841000 1.788000 153.000000 155.000000 144.000000
-19.355000 36.855000 1.351000 121.000000 104.000000 60.000000
-19.328000 36.853000 1.528000 160.000000 161.000000 145.000000
-19.364000 36.854000 1.402000 131.000000 107.000000 59.000000
-19.080000 36.847000 1.556000 157.000000 160.000000 149.000000
-19.281000 36.853000 1.360000 165.000000 166.000000 158.000000
-19.148000 36.848000 1.604000 156.000000 158.000000 145.000000
-19.363000 36.854000 1.395000 129.000000 109.000000 58.000000
-19.121000 36.848000 1.606000 154.000000 157.000000 146.000000
-19.022000 36.845000 1.699000 155.000000 155.000000 145.000000
-19.315000 36.853000 1.438000 159.000000 166.000000 159.000000
-18.905000 36.842000 1.767000 152.000000 153.000000 145.000000
-19.368000 36.853000 1.534000 133.000000 105.000000 57.000000
-19.028000 36.846000 1.628000 155.000000 157.000000 146.000000
-19.285000 36.852000 1.508000 159.000000 162.000000 153.000000
-19.176000 36.849000 1.655000 157.000000 157.000000 145.000000
-19.178000 36.849000 1.634000 157.000000 159.000000 146.000000
-18.992000 36.845000 1.631000 153.000000 154.000000 146.000000
-19.185000 36.850000 1.478000 162.000000 162.000000 150.000000
-19.346000 36.853000 1.548000 126.000000 107.000000 67.000000
-19.312000 36.852000 1.566000 156.000000 161.000000 154.000000
-19.124000 36.848000 1.632000 154.000000 157.000000 146.000000
-19.215000 36.850000 1.569000 158.000000 160.000000 147.000000
-19.368000 36.855000 1.365000 125.000000 107.000000 57.000000
-19.090000 36.847000 1.583000 155.000000 159.000000 145.000000
-19.247000 36.852000 1.375000 165.000000 167.000000 156.000000
-19.275000 36.853000 1.402000 163.000000 164.000000 156.000000
-19.355000 36.854000 1.433000 136.000000 113.000000 59.000000
-19.080000 36.847000 1.585000 156.000000 160.000000 146.000000
-19.364000 36.855000 1.328000 119.000000 104.000000 65.000000
-19.321000 36.854000 1.334000 167.000000 168.000000 162.000000
-19.262000 36.851000 1.526000 158.000000 161.000000 150.000000
-19.084000 36.847000 1.572000 153.000000 159.000000 149.000000
-19.193000 36.851000 1.437000 157.000000 163.000000 153.000000
-19.338000 36.854000 1.418000 86.000000 79.000000 51.000000
-18.901000 36.842000 1.751000 153.000000 154.000000 146.000000
-19.250000 36.851000 1.493000 160.000000 162.000000 151.000000
-19.353000 36.855000 1.348000 129.000000 112.000000 69.000000
-19.220000 36.851000 1.506000 159.000000 161.000000 150.000000
-18.987000 36.844000 1.681000 151.000000 154.000000 143.000000
-19.381000 36.855000 1.374000 126.000000 109.000000 65.000000
-19.337000 36.853000 1.484000 98.000000 87.000000 55.000000
-19.336000 36.854000 1.400000 89.000000 84.000000 52.000000
-19.355000 36.856000 1.233000 147.000000 118.000000 62.000000
-19.229000 36.850000 1.591000 156.000000 160.000000 146.000000
-19.374000 36.855000 1.387000 132.000000 111.000000 64.000000
-19.188000 36.849000 1.646000 156.000000 156.000000 144.000000
-19.305000 36.852000 1.590000 162.000000 159.000000 150.000000
-19.187000 36.849000 1.605000 156.000000 158.000000 145.000000
-19.006000 36.845000 1.612000 150.000000 156.000000 144.000000
-19.162000 36.849000 1.550000 157.000000 161.000000 147.000000
-18.975000 36.845000 1.646000 159.000000 155.000000 144.000000
-19.184000 36.850000 1.450000 162.000000 162.000000 150.000000
-19.013000 36.845000 1.710000 157.000000 154.000000 145.000000
-19.055000 36.847000 1.592000 154.000000 157.000000 146.000000
-19.381000 36.856000 1.250000 132.000000 114.000000 68.000000
-18.973000 36.844000 1.749000 155.000000 155.000000 145.000000
-18.921000 36.843000 1.748000 153.000000 154.000000 146.000000
-19.036000 36.845000 1.689000 153.000000 155.000000 144.000000
-19.279000 36.852000 1.474000 161.000000 162.000000 154.000000
-19.122000 36.848000 1.605000 154.000000 157.000000 146.000000
-19.251000 36.852000 1.373000 165.000000 167.000000 156.000000
-18.868000 36.841000 1.774000 153.000000 154.000000 146.000000
-18.992000 36.845000 1.652000 154.000000 156.000000 145.000000
-19.357000 36.856000 1.248000 146.000000 119.000000 64.000000
-19.252000 36.851000 1.602000 157.000000 160.000000 149.000000
-19.368000 36.854000 1.465000 143.000000 118.000000 64.000000
-19.212000 36.850000 1.591000 156.000000 160.000000 146.000000
-19.206000 36.850000 1.584000 155.000000 159.000000 145.000000
-19.370000 36.854000 1.507000 146.000000 120.000000 71.000000
-19.202000 36.851000 1.473000 161.000000 163.000000 152.000000
-19.172000 36.849000 1.637000 156.000000 158.000000 145.000000
-19.380000 36.854000 1.465000 133.000000 112.000000 69.000000
-18.874000 36.841000 1.766000 152.000000 153.000000 145.000000
-19.141000 36.849000 1.546000 160.000000 160.000000 148.000000
-19.239000 36.850000 1.585000 157.000000 161.000000 147.000000
-19.203000 36.851000 1.467000 161.000000 163.000000 152.000000
-18.934000 36.843000 1.716000 153.000000 154.000000 146.000000
-19.288000 36.853000 1.349000 165.000000 166.000000 158.000000
-19.058000 36.846000 1.701000 155.000000 155.000000 143.000000
-19.216000 36.850000 1.523000 160.000000 160.000000 148.000000
-19.307000 36.854000 1.298000 164.000000 172.000000 161.000000
-19.385000 36.856000 1.258000 139.000000 126.000000 91.000000
-19.209000 36.850000 1.550000 160.000000 160.000000 148.000000
-19.376000 36.855000 1.341000 115.000000 97.000000 57.000000
-19.058000 36.847000 1.561000 158.000000 160.000000 149.000000
-19.276000 36.852000 1.477000 161.000000 162.000000 154.000000
-19.045000 36.847000 1.575000 157.000000 158.000000 150.000000
-19.163000 36.848000 1.639000 156.000000 158.000000 145.000000
-19.270000 36.852000 1.521000 160.000000 163.000000 154.000000
-19.320000 36.853000 1.414000 161.000000 166.000000 160.000000
-19.308000 36.854000 1.332000 167.000000 167.000000 157.000000
-19.048000 36.847000 1.582000 156.000000 158.000000 147.000000
-18.964000 36.844000 1.693000 153.000000 154.000000 146.000000
-19.228000 36.851000 1.520000 160.000000 160.000000 150.000000
-19.235000 36.852000 1.396000 159.000000 165.000000 155.000000
-19.166000 36.850000 1.445000 160.000000 163.000000 152.000000
-19.129000 36.849000 1.488000 160.000000 162.000000 151.000000
-19.287000 36.852000 1.473000 162.000000 163.000000 155.000000
-19.259000 36.852000 1.452000 161.000000 163.000000 152.000000
-19.201000 36.850000 1.586000 155.000000 159.000000 145.000000
-18.999000 36.845000 1.679000 154.000000 156.000000 145.000000
-19.102000 36.848000 1.585000 158.000000 158.000000 146.000000
-19.214000 36.850000 1.550000 160.000000 160.000000 148.000000
-19.295000 36.854000 1.302000 159.000000 170.000000 166.000000
-19.186000 36.849000 1.567000 157.000000 160.000000 149.000000
-19.307000 36.852000 1.550000 161.000000 162.000000 154.000000
-19.295000 36.854000 1.320000 162.000000 168.000000 164.000000
-19.371000 36.854000 1.533000 134.000000 107.000000 60.000000
-19.250000 36.853000 1.356000 167.000000 164.000000 155.000000
-19.061000 36.847000 1.598000 156.000000 157.000000 149.000000
-19.043000 36.846000 1.597000 152.000000 155.000000 146.000000
-19.379000 36.856000 1.244000 133.000000 113.000000 62.000000
-19.235000 36.851000 1.465000 161.000000 163.000000 152.000000
-19.390000 36.856000 1.259000 145.000000 139.000000 103.000000
-19.392000 36.855000 1.346000 150.000000 143.000000 115.000000
-19.342000 36.853000 1.487000 107.000000 97.000000 62.000000
-19.256000 36.851000 1.545000 159.000000 161.000000 150.000000
-19.251000 36.851000 1.595000 157.000000 160.000000 149.000000
-19.297000 36.852000 1.567000 162.000000 164.000000 153.000000
-19.382000 36.856000 1.296000 124.000000 113.000000 83.000000
-19.308000 36.852000 1.571000 158.000000 161.000000 152.000000
-19.071000 36.847000 1.589000 155.000000 159.000000 145.000000
-18.953000 36.844000 1.673000 158.000000 155.000000 148.000000
-18.968000 36.844000 1.668000 157.000000 157.000000 147.000000
-19.191000 36.850000 1.483000 162.000000 162.000000 150.000000
-19.201000 36.849000 1.602000 155.000000 159.000000 145.000000
-19.114000 36.848000 1.602000 155.000000 158.000000 147.000000
-19.171000 36.849000 1.587000 155.000000 158.000000 147.000000
-19.295000 36.852000 1.575000 161.000000 163.000000 152.000000
-19.277000 36.853000 1.317000 166.000000 169.000000 160.000000
-19.297000 36.853000 1.391000 164.000000 167.000000 160.000000
-19.074000 36.847000 1.583000 155.000000 159.000000 145.000000
-19.185000 36.850000 1.462000 162.000000 162.000000 150.000000
-19.301000 36.852000 1.592000 164.000000 160.000000 151.000000
-18.991000 36.845000 1.667000 154.000000 156.000000 145.000000
-19.376000 36.855000 1.386000 129.000000 108.000000 63.000000
-19.097000 36.848000 1.571000 157.000000 159.000000 146.000000
-19.157000 36.850000 1.453000 160.000000 162.000000 151.000000
-19.114000 36.849000 1.504000 160.000000 162.000000 151.000000
-19.313000 36.854000 1.383000 165.000000 169.000000 154.000000
-19.154000 36.848000 1.648000 155.000000 157.000000 144.000000
-19.051000 36.846000 1.602000 153.000000 154.000000 146.000000
-19.043000 36.846000 1.591000 156.000000 157.000000 149.000000
-19.092000 36.847000 1.660000 155.000000 157.000000 146.000000
-19.093000 36.848000 1.522000 160.000000 161.000000 153.000000
-19.367000 36.854000 1.508000 132.000000 104.000000 54.000000
-18.903000 36.842000 1.766000 151.000000 154.000000 145.000000
-19.362000 36.853000 1.572000 134.000000 106.000000 56.000000
-19.126000 36.847000 1.662000 155.000000 157.000000 146.000000
-19.276000 36.853000 1.355000 165.000000 166.000000 158.000000
-18.924000 36.843000 1.728000 152.000000 153.000000 145.000000
-19.341000 36.854000 1.344000 121.000000 106.000000 75.000000
-19.314000 36.853000 1.395000 164.000000 168.000000 153.000000
-18.865000 36.841000 1.793000 153.000000 153.000000 143.000000
-19.300000 36.854000 1.301000 160.000000 169.000000 168.000000
-19.187000 36.849000 1.587000 156.000000 159.000000 148.000000
-19.205000 36.851000 1.434000 158.000000 164.000000 154.000000
-19.326000 36.853000 1.534000 165.000000 167.000000 154.000000
-19.146000 36.849000 1.490000 159.000000 162.000000 151.000000
-18.938000 36.843000 1.692000 153.000000 154.000000 146.000000
-19.095000 36.847000 1.695000 156.000000 156.000000 144.000000
-19.140000 36.848000 1.661000 156.000000 158.000000 147.000000
-19.336000 36.854000 1.356000 120.000000 107.000000 73.000000
-19.285000 36.853000 1.396000 164.000000 165.000000 157.000000
-18.989000 36.845000 1.631000 153.000000 154.000000 146.000000
-19.173000 36.849000 1.545000 160.000000 160.000000 148.000000
-19.364000 36.855000 1.312000 120.000000 106.000000 69.000000
-19.298000 36.854000 1.344000 164.000000 166.000000 165.000000
-19.329000 36.854000 1.384000 169.000000 172.000000 163.000000
-19.289000 36.853000 1.351000 161.000000 172.000000 156.000000
-19.208000 36.850000 1.598000 156.000000 160.000000 146.000000
-19.359000 36.855000 1.359000 129.000000 111.000000 61.000000
-19.301000 36.854000 1.293000 165.000000 169.000000 168.000000
-19.298000 36.852000 1.565000 162.000000 164.000000 153.000000
-19.275000 36.853000 1.376000 164.000000 165.000000 157.000000
-19.016000 36.845000 1.669000 154.000000 156.000000 145.000000
-19.069000 36.847000 1.586000 155.000000 159.000000 145.000000
-19.324000 36.854000 1.348000 164.000000 165.000000 160.000000
-19.142000 36.849000 1.469000 160.000000 162.000000 151.000000
-19.125000 36.848000 1.571000 157.000000 159.000000 146.000000
-19.303000 36.854000 1.306000 162.000000 168.000000 166.000000
-18.872000 36.841000 1.789000 153.000000 153.000000 143.000000
-19.281000 36.853000 1.359000 165.000000 166.000000 158.000000
-19.366000 36.853000 1.524000 139.000000 111.000000 63.000000
-19.354000 36.854000 1.416000 129.000000 108.000000 55.000000
-19.296000 36.853000 1.393000 164.000000 167.000000 160.000000
-19.026000 36.846000 1.595000 156.000000 157.000000 149.000000
-18.976000 36.844000 1.752000 153.000000 155.000000 144.000000
-19.054000 36.847000 1.565000 159.000000 159.000000 149.000000
-19.023000 36.845000 1.685000 153.000000 155.000000 144.000000
-19.383000 36.854000 1.444000 127.000000 109.000000 63.000000
-19.371000 36.853000 1.580000 130.000000 103.000000 56.000000
-19.335000 36.852000 1.577000 108.000000 106.000000 83.000000
-19.011000 36.845000 1.734000 153.000000 155.000000 144.000000
-19.155000 36.849000 1.575000 156.000000 159.000000 148.000000
-19.304000 36.852000 1.588000 163.000000 160.000000 151.000000
-19.234000 36.852000 1.411000 156.000000 167.000000 151.000000
-19.395000 36.856000 1.319000 153.000000 145.000000 124.000000
-19.354000 36.855000 1.274000 141.000000 117.000000 53.000000
-18.993000 36.844000 1.711000 154.000000 156.000000 145.000000
-18.952000 36.844000 1.681000 156.000000 153.000000 146.000000
-19.224000 36.850000 1.646000 156.000000 158.000000 147.000000
-19.289000 36.852000 1.491000 159.000000 164.000000 157.000000
-18.869000 36.841000 1.778000 153.000000 154.000000 146.000000
-19.112000 36.848000 1.622000 154.000000 157.000000 146.000000
-18.952000 36.844000 1.698000 153.000000 154.000000 146.000000
-19.336000 36.854000 1.353000 109.000000 106.000000 89.000000
-19.292000 36.851000 1.609000 161.000000 161.000000 153.000000
-19.065000 36.846000 1.680000 154.000000 156.000000 143.000000
-19.099000 36.847000 1.701000 154.000000 156.000000 145.000000
-19.265000 36.851000 1.623000 157.000000 160.000000 149.000000
-19.392000 36.857000 1.217000 156.000000 147.000000 118.000000
-19.362000 36.855000 1.364000 129.000000 111.000000 61.000000
-19.235000 36.851000 1.479000 161.000000 163.000000 152.000000
-19.370000 36.855000 1.338000 132.000000 114.000000 74.000000
-18.935000 36.843000 1.728000 152.000000 153.000000 145.000000
-19.146000 36.849000 1.532000 160.000000 161.000000 147.000000
-19.327000 36.854000 1.418000 173.000000 175.000000 162.000000
-19.366000 36.855000 1.301000 123.000000 104.000000 71.000000
-19.092000 36.847000 1.689000 154.000000 156.000000 143.000000
-19.289000 36.851000 1.583000 161.000000 161.000000 151.000000
-19.129000 36.849000 1.533000 159.000000 159.000000 147.000000
-19.376000 36.854000 1.536000 138.000000 117.000000 72.000000
-19.084000 36.848000 1.529000 159.000000 160.000000 152.000000
-19.069000 36.847000 1.579000 155.000000 158.000000 147.000000
-19.203000 36.851000 1.418000 156.000000 162.000000 152.000000
-19.025000 36.845000 1.658000 153.000000 155.000000 144.000000
-19.333000 36.853000 1.498000 139.000000 136.000000 117.000000
-19.066000 36.847000 1.589000 155.000000 159.000000 145.000000
-19.305000 36.853000 1.394000 162.000000 164.000000 159.000000
-19.349000 36.854000 1.426000 130.000000 113.000000 67.000000
-19.204000 36.850000 1.536000 160.000000 160.000000 148.000000
-19.285000 36.852000 1.484000 163.000000 164.000000 156.000000
-19.353000 36.854000 1.382000 128.000000 114.000000 69.000000
-18.998000 36.845000 1.648000 153.000000 155.000000 144.000000
-19.180000 36.849000 1.611000 156.000000 158.000000 145.000000
-18.905000 36.842000 1.760000 151.000000 152.000000 144.000000
-19.188000 36.850000 1.493000 161.000000 161.000000 149.000000
-19.203000 36.851000 1.448000 160.000000 163.000000 154.000000
-19.302000 36.852000 1.544000 162.000000 163.000000 155.000000
-18.902000 36.842000 1.729000 152.000000 153.000000 145.000000
-19.341000 36.853000 1.498000 103.000000 92.000000 60.000000
-19.185000 36.850000 1.484000 161.000000 161.000000 149.000000
-19.252000 36.851000 1.515000 160.000000 162.000000 151.000000
-19.267000 36.851000 1.573000 159.000000 161.000000 150.000000
-19.040000 36.845000 1.704000 154.000000 154.000000 144.000000
-19.253000 36.853000 1.350000 166.000000 166.000000 158.000000
-19.386000 36.856000 1.225000 143.000000 130.000000 96.000000
-19.344000 36.854000 1.438000 134.000000 121.000000 87.000000
-19.173000 36.849000 1.570000 156.000000 159.000000 148.000000
-19.096000 36.848000 1.521000 159.000000 161.000000 150.000000
-19.201000 36.851000 1.464000 161.000000 163.000000 152.000000
-19.140000 36.848000 1.610000 155.000000 158.000000 147.000000
-18.838000 36.840000 1.804000 153.000000 154.000000 148.000000
-19.279000 36.852000 1.524000 160.000000 163.000000 154.000000
-19.312000 36.853000 1.461000 157.000000 163.000000 159.000000
-19.245000 36.851000 1.557000 159.000000 159.000000 147.000000
-19.292000 36.853000 1.342000 162.000000 170.000000 159.000000
-19.390000 36.855000 1.346000 146.000000 137.000000 108.000000
-19.116000 36.848000 1.585000 156.000000 158.000000 145.000000
-19.324000 36.853000 1.498000 157.000000 165.000000 154.000000
-19.061000 36.847000 1.585000 154.000000 157.000000 146.000000
-18.858000 36.841000 1.781000 153.000000 154.000000 146.000000
-18.959000 36.844000 1.676000 155.000000 155.000000 147.000000
-19.160000 36.849000 1.603000 155.000000 157.000000 144.000000
-19.076000 36.847000 1.602000 154.000000 157.000000 146.000000
-19.330000 36.854000 1.366000 167.000000 168.000000 160.000000
-19.038000 36.846000 1.578000 156.000000 158.000000 147.000000
-19.054000 36.847000 1.586000 154.000000 157.000000 146.000000
-18.967000 36.844000 1.689000 153.000000 154.000000 146.000000
-19.368000 36.854000 1.440000 140.000000 114.000000 65.000000
-19.265000 36.853000 1.363000 166.000000 166.000000 158.000000
-19.106000 36.847000 1.687000 156.000000 156.000000 146.000000
-19.141000 36.849000 1.507000 160.000000 160.000000 148.000000
-19.293000 36.854000 1.298000 160.000000 171.000000 163.000000
-19.224000 36.850000 1.567000 158.000000 160.000000 147.000000
-19.100000 36.847000 1.614000 153.000000 156.000000 145.000000
-19.174000 36.849000 1.602000 156.000000 158.000000 145.000000
-19.101000 36.848000 1.594000 154.000000 157.000000 146.000000
-19.221000 36.851000 1.446000 159.000000 161.000000 150.000000
-19.273000 36.851000 1.594000 160.000000 160.000000 152.000000
-19.271000 36.852000 1.496000 162.000000 163.000000 155.000000
-19.369000 36.856000 1.224000 148.000000 117.000000 60.000000
-19.235000 36.851000 1.507000 160.000000 162.000000 151.000000
-19.359000 36.853000 1.530000 145.000000 117.000000 69.000000
-19.354000 36.854000 1.460000 146.000000 126.000000 75.000000
-18.826000 36.840000 1.810000 153.000000 154.000000 146.000000
-19.236000 36.850000 1.584000 157.000000 161.000000 147.000000
-19.008000 36.845000 1.726000 153.000000 153.000000 143.000000
-19.051000 36.847000 1.563000 160.000000 160.000000 150.000000
-19.262000 36.851000 1.622000 157.000000 160.000000 149.000000
-19.180000 36.850000 1.445000 158.000000 164.000000 152.000000
-19.310000 36.853000 1.413000 161.000000 164.000000 157.000000
-19.182000 36.850000 1.490000 161.000000 161.000000 149.000000
-19.291000 36.852000 1.521000 160.000000 166.000000 156.000000
-19.173000 36.850000 1.471000 160.000000 162.000000 149.000000
-19.259000 36.851000 1.555000 160.000000 160.000000 150.000000
-19.333000 36.852000 1.568000 111.000000 106.000000 84.000000
-18.971000 36.844000 1.660000 156.000000 156.000000 144.000000
-18.948000 36.843000 1.731000 153.000000 154.000000 146.000000
-18.941000 36.843000 1.718000 153.000000 154.000000 146.000000
-19.067000 36.846000 1.674000 153.000000 157.000000 143.000000
-19.339000 36.853000 1.484000 106.000000 96.000000 61.000000
-18.854000 36.841000 1.793000 153.000000 153.000000 143.000000
-19.031000 36.846000 1.630000 156.000000 156.000000 146.000000
-19.078000 36.847000 1.637000 155.000000 156.000000 148.000000
-19.285000 36.851000 1.608000 160.000000 160.000000 150.000000
-19.316000 36.853000 1.496000 155.000000 164.000000 161.000000
-19.304000 36.852000 1.596000 161.000000 158.000000 149.000000
-19.177000 36.850000 1.473000 161.000000 163.000000 150.000000
-18.986000 36.844000 1.740000 153.000000 154.000000 146.000000
-19.221000 36.851000 1.481000 161.000000 163.000000 152.000000
-19.236000 36.851000 1.444000 161.000000 163.000000 150.000000
-19.222000 36.850000 1.531000 160.000000 160.000000 150.000000
-19.212000 36.849000 1.647000 156.000000 156.000000 146.000000
-18.931000 36.843000 1.766000 150.000000 151.000000 143.000000
-19.321000 36.853000 1.429000 161.000000 168.000000 160.000000
-19.248000 36.851000 1.553000 160.000000 160.000000 150.000000
-19.352000 36.854000 1.472000 143.000000 121.000000 71.000000
-19.290000 36.853000 1.345000 161.000000 172.000000 156.000000
-19.303000 36.852000 1.545000 162.000000 163.000000 155.000000
-19.058000 36.847000 1.569000 158.000000 158.000000 150.000000
-19.087000 36.848000 1.541000 159.000000 161.000000 150.000000
-19.266000 36.852000 1.517000 160.000000 163.000000 154.000000
-19.150000 36.849000 1.516000 158.000000 160.000000 147.000000
-19.267000 36.851000 1.558000 160.000000 162.000000 151.000000
-19.402000 36.857000 1.209000 158.000000 160.000000 139.000000
-19.351000 36.853000 1.515000 135.000000 112.000000 68.000000
-19.189000 36.850000 1.525000 160.000000 160.000000 148.000000
-19.334000 36.852000 1.582000 111.000000 106.000000 84.000000
-19.039000 36.846000 1.680000 154.000000 156.000000 145.000000
-19.121000 36.849000 1.508000 160.000000 162.000000 149.000000
-19.042000 36.846000 1.659000 153.000000 155.000000 144.000000
-19.109000 36.848000 1.594000 157.000000 157.000000 145.000000
-19.353000 36.855000 1.265000 136.000000 115.000000 52.000000
-19.327000 36.855000 1.266000 173.000000 173.000000 173.000000
-19.357000 36.853000 1.503000 132.000000 104.000000 54.000000
-19.354000 36.855000 1.341000 131.000000 113.000000 75.000000
-19.036000 36.846000 1.617000 154.000000 155.000000 147.000000
-19.083000 36.847000 1.673000 152.000000 156.000000 142.000000
-19.214000 36.850000 1.537000 161.000000 161.000000 149.000000
-19.148000 36.848000 1.647000 155.000000 157.000000 144.000000
-19.168000 36.848000 1.662000 155.000000 157.000000 144.000000
-19.228000 36.850000 1.557000 160.000000 160.000000 148.000000
-19.390000 36.857000 1.201000 150.000000 136.000000 110.000000
-19.190000 36.850000 1.567000 158.000000 161.000000 150.000000
-19.244000 36.852000 1.398000 158.000000 164.000000 152.000000
-19.220000 36.851000 1.409000 156.000000 164.000000 151.000000
-19.290000 36.853000 1.431000 161.000000 164.000000 155.000000
-19.382000 36.855000 1.329000 130.000000 115.000000 84.000000
-19.149000 36.848000 1.683000 155.000000 157.000000 144.000000
-18.962000 36.844000 1.683000 155.000000 155.000000 147.000000
-19.334000 36.854000 1.416000 104.000000 99.000000 80.000000
-19.209000 36.851000 1.442000 160.000000 163.000000 152.000000
-19.150000 36.849000 1.491000 158.000000 161.000000 150.000000
-19.197000 36.850000 1.541000 160.000000 160.000000 148.000000
-19.281000 36.852000 1.465000 162.000000 163.000000 155.000000
-19.268000 36.852000 1.441000 160.000000 163.000000 154.000000
-19.312000 36.854000 1.299000 163.000000 171.000000 158.000000
-19.167000 36.849000 1.626000 156.000000 158.000000 145.000000
-19.276000 36.852000 1.444000 161.000000 164.000000 155.000000
-19.318000 36.854000 1.383000 161.000000 164.000000 153.000000
-19.256000 36.852000 1.438000 161.000000 163.000000 152.000000
-19.097000 36.847000 1.625000 154.000000 157.000000 146.000000
-19.325000 36.853000 1.538000 163.000000 165.000000 152.000000
-19.345000 36.854000 1.367000 118.000000 105.000000 70.000000
-18.999000 36.845000 1.631000 154.000000 155.000000 147.000000
-19.141000 36.848000 1.593000 155.000000 159.000000 145.000000
-19.016000 36.845000 1.681000 153.000000 155.000000 144.000000
-18.942000 36.843000 1.749000 152.000000 153.000000 145.000000
-18.952000 36.843000 1.722000 155.000000 155.000000 145.000000
-19.358000 36.854000 1.470000 141.000000 116.000000 60.000000
-19.150000 36.848000 1.622000 157.000000 159.000000 146.000000
-19.353000 36.854000 1.397000 116.000000 103.000000 58.000000
-19.264000 36.852000 1.414000 161.000000 164.000000 153.000000
-19.173000 36.849000 1.622000 155.000000 157.000000 144.000000
-19.257000 36.853000 1.346000 167.000000 167.000000 159.000000
-19.380000 36.856000 1.217000 141.000000 119.000000 72.000000
-19.362000 36.854000 1.424000 146.000000 119.000000 66.000000
-19.242000 36.850000 1.597000 157.000000 160.000000 149.000000
-19.041000 36.846000 1.673000 155.000000 157.000000 146.000000
-19.045000 36.845000 1.722000 154.000000 154.000000 144.000000
-19.000000 36.845000 1.675000 153.000000 155.000000 144.000000
-19.050000 36.847000 1.576000 158.000000 158.000000 150.000000
-19.144000 36.848000 1.626000 156.000000 158.000000 145.000000
-19.357000 36.855000 1.345000 122.000000 105.000000 61.000000
-19.296000 36.852000 1.511000 159.000000 165.000000 155.000000
-19.261000 36.853000 1.352000 167.000000 167.000000 159.000000
-19.042000 36.846000 1.573000 157.000000 159.000000 148.000000
-19.282000 36.852000 1.473000 161.000000 162.000000 154.000000
-19.280000 36.851000 1.557000 159.000000 160.000000 152.000000
-19.247000 36.851000 1.485000 161.000000 163.000000 152.000000
-19.396000 36.857000 1.226000 155.000000 149.000000 123.000000
-19.284000 36.852000 1.485000 163.000000 164.000000 156.000000
-19.101000 36.847000 1.618000 154.000000 157.000000 146.000000
-19.196000 36.851000 1.403000 158.000000 164.000000 154.000000
-19.041000 36.846000 1.638000 155.000000 157.000000 146.000000
-19.380000 36.856000 1.300000 118.000000 105.000000 73.000000
-19.257000 36.851000 1.501000 160.000000 162.000000 151.000000
-19.328000 36.852000 1.567000 156.000000 155.000000 137.000000
-19.219000 36.851000 1.481000 160.000000 162.000000 151.000000
-19.229000 36.852000 1.413000 155.000000 166.000000 152.000000
-19.246000 36.851000 1.568000 159.000000 161.000000 148.000000
-19.230000 36.852000 1.412000 155.000000 166.000000 152.000000
-19.160000 36.849000 1.509000 159.000000 161.000000 148.000000
-19.358000 36.853000 1.589000 129.000000 103.000000 54.000000
-19.219000 36.851000 1.512000 159.000000 161.000000 150.000000
-19.213000 36.850000 1.628000 156.000000 158.000000 147.000000
-19.030000 36.845000 1.680000 154.000000 156.000000 145.000000
-19.188000 36.851000 1.439000 158.000000 164.000000 152.000000
-19.253000 36.851000 1.502000 161.000000 163.000000 152.000000
-19.040000 36.846000 1.663000 152.000000 154.000000 143.000000
-18.917000 36.843000 1.725000 152.000000 153.000000 145.000000
-19.243000 36.850000 1.633000 156.000000 159.000000 148.000000
-19.300000 36.852000 1.494000 161.000000 164.000000 157.000000
-19.200000 36.849000 1.662000 156.000000 156.000000 146.000000
-19.110000 36.847000 1.698000 155.000000 157.000000 146.000000
-19.170000 36.849000 1.607000 156.000000 158.000000 145.000000
-19.140000 36.849000 1.552000 159.000000 159.000000 147.000000
-19.134000 36.847000 1.683000 155.000000 155.000000 145.000000
-19.235000 36.852000 1.404000 155.000000 166.000000 150.000000
-19.302000 36.854000 1.295000 164.000000 170.000000 168.000000
-19.213000 36.851000 1.467000 160.000000 162.000000 151.000000
-19.329000 36.854000 1.337000 171.000000 168.000000 161.000000
-19.340000 36.854000 1.432000 103.000000 92.000000 62.000000
-19.383000 36.855000 1.359000 132.000000 117.000000 74.000000
-19.148000 36.848000 1.615000 156.000000 158.000000 145.000000
-19.033000 36.845000 1.723000 155.000000 155.000000 145.000000
-19.034000 36.845000 1.690000 153.000000 155.000000 144.000000
-18.941000 36.843000 1.741000 153.000000 154.000000 146.000000
-19.375000 36.856000 1.282000 120.000000 103.000000 49.000000
-19.232000 36.852000 1.413000 156.000000 167.000000 153.000000
-19.357000 36.854000 1.434000 137.000000 112.000000 56.000000
-19.009000 36.845000 1.657000 154.000000 156.000000 145.000000
-19.273000 36.852000 1.506000 159.000000 162.000000 153.000000
-19.190000 36.850000 1.482000 162.000000 162.000000 150.000000
-19.186000 36.850000 1.485000 161.000000 161.000000 149.000000
-19.103000 36.848000 1.597000 154.000000 157.000000 146.000000
-19.374000 36.853000 1.581000 137.000000 113.000000 67.000000
-19.160000 36.849000 1.615000 156.000000 158.000000 145.000000
-18.982000 36.844000 1.748000 154.000000 155.000000 147.000000
-19.174000 36.850000 1.477000 160.000000 162.000000 149.000000
-19.386000 36.856000 1.251000 136.000000 123.000000 88.000000
-19.329000 36.853000 1.447000 160.000000 161.000000 143.000000
-19.056000 36.846000 1.615000 156.000000 156.000000 146.000000
-19.156000 36.849000 1.522000 160.000000 162.000000 149.000000
-19.207000 36.849000 1.629000 156.000000 158.000000 145.000000
-19.014000 36.845000 1.648000 154.000000 156.000000 145.000000
-19.200000 36.850000 1.533000 160.000000 160.000000 148.000000
-18.832000 36.840000 1.808000 153.000000 154.000000 148.000000
-19.155000 36.849000 1.521000 158.000000 160.000000 147.000000
-19.355000 36.853000 1.552000 134.000000 108.000000 59.000000
-19.176000 36.849000 1.542000 159.000000 159.000000 147.000000
-19.370000 36.856000 1.213000 149.000000 120.000000 60.000000
-19.124000 36.849000 1.510000 160.000000 160.000000 148.000000
-19.227000 36.850000 1.645000 156.000000 158.000000 147.000000
-19.143000 36.849000 1.493000 160.000000 162.000000 151.000000
-19.197000 36.849000 1.614000 155.000000 159.000000 145.000000
-19.207000 36.850000 1.511000 160.000000 162.000000 149.000000
-19.351000 36.855000 1.253000 143.000000 124.000000 68.000000
-19.145000 36.848000 1.675000 155.000000 157.000000 144.000000
-19.365000 36.855000 1.393000 131.000000 111.000000 60.000000
-19.201000 36.849000 1.613000 156.000000 160.000000 146.000000
-19.371000 36.855000 1.301000 126.000000 112.000000 73.000000
-19.375000 36.854000 1.450000 138.000000 117.000000 72.000000
-19.285000 36.852000 1.516000 160.000000 163.000000 154.000000
-19.232000 36.852000 1.363000 163.000000 166.000000 157.000000
-18.950000 36.843000 1.721000 153.000000 154.000000 146.000000
-19.303000 36.854000 1.314000 163.000000 167.000000 168.000000
-19.199000 36.850000 1.556000 159.000000 159.000000 147.000000
-19.117000 36.848000 1.533000 159.000000 161.000000 150.000000
-19.340000 36.854000 1.372000 130.000000 120.000000 85.000000
-18.920000 36.843000 1.739000 152.000000 153.000000 145.000000
-19.162000 36.848000 1.628000 156.000000 158.000000 145.000000
-19.174000 36.849000 1.636000 157.000000 159.000000 146.000000
-19.161000 36.848000 1.645000 155.000000 157.000000 144.000000
-19.238000 36.850000 1.603000 156.000000 159.000000 148.000000
-19.198000 36.851000 1.435000 158.000000 164.000000 154.000000
-19.371000 36.855000 1.402000 131.000000 109.000000 60.000000
-19.324000 36.854000 1.361000 167.000000 167.000000 165.000000
-19.253000 36.851000 1.602000 157.000000 160.000000 149.000000
-19.316000 36.852000 1.595000 156.000000 162.000000 152.000000
-19.247000 36.851000 1.481000 161.000000 163.000000 152.000000
-19.022000 36.846000 1.594000 156.000000 158.000000 147.000000
-19.040000 36.846000 1.634000 156.000000 156.000000 146.000000
-19.169000 36.850000 1.435000 159.000000 165.000000 153.000000
-19.163000 36.849000 1.617000 156.000000 158.000000 145.000000
-18.970000 36.844000 1.654000 158.000000 156.000000 144.000000
-19.367000 36.856000 1.224000 148.000000 117.000000 60.000000
-19.228000 36.852000 1.371000 161.000000 164.000000 155.000000
-19.377000 36.856000 1.220000 141.000000 118.000000 66.000000
-19.377000 36.855000 1.415000 138.000000 117.000000 72.000000
-19.290000 36.854000 1.319000 159.000000 171.000000 157.000000
-19.174000 36.850000 1.502000 162.000000 160.000000 147.000000
-19.188000 36.849000 1.660000 157.000000 157.000000 145.000000
-19.152000 36.849000 1.592000 154.000000 157.000000 146.000000
-19.251000 36.853000 1.345000 166.000000 166.000000 158.000000
-19.380000 36.856000 1.246000 132.000000 114.000000 68.000000
-19.275000 36.852000 1.426000 161.000000 164.000000 155.000000
-18.985000 36.844000 1.680000 152.000000 154.000000 143.000000
-19.306000 36.854000 1.362000 163.000000 165.000000 160.000000
-19.192000 36.850000 1.570000 157.000000 160.000000 149.000000
-19.031000 36.845000 1.706000 154.000000 154.000000 144.000000
-18.957000 36.843000 1.733000 153.000000 153.000000 145.000000
-19.310000 36.853000 1.403000 162.000000 165.000000 158.000000
-19.212000 36.851000 1.462000 160.000000 162.000000 151.000000
-19.005000 36.845000 1.713000 156.000000 153.000000 144.000000
-19.283000 36.853000 1.391000 164.000000 165.000000 157.000000
-19.105000 36.847000 1.640000 155.000000 158.000000 147.000000
-19.312000 36.853000 1.460000 157.000000 163.000000 159.000000
-19.391000 36.856000 1.335000 151.000000 144.000000 118.000000
-19.058000 36.846000 1.638000 155.000000 155.000000 143.000000
-19.196000 36.850000 1.585000 156.000000 160.000000 146.000000
-19.118000 36.848000 1.572000 156.000000 158.000000 145.000000
-19.104000 36.847000 1.617000 153.000000 156.000000 145.000000
-19.230000 36.851000 1.504000 160.000000 162.000000 151.000000
-19.311000 36.853000 1.479000 161.000000 163.000000 160.000000
-19.174000 36.850000 1.454000 161.000000 163.000000 150.000000
-19.260000 36.852000 1.408000 162.000000 165.000000 154.000000
-19.022000 36.845000 1.654000 154.000000 156.000000 145.000000
-19.189000 36.851000 1.443000 158.000000 164.000000 152.000000
-19.170000 36.850000 1.449000 160.000000 163.000000 152.000000
-19.202000 36.850000 1.567000 158.000000 160.000000 147.000000
-19.378000 36.856000 1.206000 141.000000 118.000000 68.000000
-19.067000 36.846000 1.692000 156.000000 156.000000 144.000000
-19.297000 36.852000 1.582000 162.000000 162.000000 152.000000
-19.270000 36.853000 1.344000 167.000000 168.000000 160.000000
-19.192000 36.850000 1.485000 162.000000 162.000000 150.000000
-19.059000 36.846000 1.693000 156.000000 156.000000 144.000000
-19.263000 36.851000 1.576000 157.000000 159.000000 148.000000
-18.915000 36.842000 1.774000 152.000000 153.000000 145.000000
-19.167000 36.850000 1.460000 161.000000 163.000000 150.000000
-18.946000 36.843000 1.754000 153.000000 154.000000 146.000000
-19.254000 36.852000 1.467000 161.000000 163.000000 152.000000
-19.071000 36.847000 1.620000 154.000000 156.000000 145.000000
-19.067000 36.846000 1.653000 153.000000 156.000000 145.000000
-19.226000 36.850000 1.554000 160.000000 160.000000 148.000000
-19.046000 36.846000 1.679000 154.000000 156.000000 145.000000
-19.088000 36.847000 1.666000 153.000000 156.000000 145.000000
-18.861000 36.841000 1.786000 153.000000 153.000000 141.000000
-19.120000 36.847000 1.647000 155.000000 158.000000 147.000000
-19.093000 36.848000 1.524000 160.000000 161.000000 153.000000
-19.232000 36.850000 1.603000 155.000000 158.000000 147.000000
-18.970000 36.844000 1.723000 156.000000 156.000000 146.000000
-19.253000 36.851000 1.505000 161.000000 163.000000 152.000000
-19.050000 36.846000 1.648000 154.000000 157.000000 146.000000
-19.164000 36.848000 1.656000 156.000000 158.000000 145.000000
-19.296000 36.852000 1.582000 162.000000 162.000000 152.000000
-19.118000 36.848000 1.519000 158.000000 160.000000 147.000000
-19.282000 36.852000 1.468000 162.000000 163.000000 155.000000
-19.261000 36.851000 1.509000 159.000000 162.000000 151.000000
-19.090000 36.847000 1.629000 154.000000 155.000000 147.000000
-19.240000 36.852000 1.356000 165.000000 166.000000 158.000000
-19.385000 36.855000 1.358000 139.000000 128.000000 96.000000
-19.252000 36.852000 1.378000 165.000000 167.000000 156.000000
-19.130000 36.848000 1.658000 155.000000 157.000000 146.000000
-19.307000 36.852000 1.602000 158.000000 158.000000 148.000000
-18.969000 36.844000 1.653000 157.000000 155.000000 143.000000
-19.114000 36.848000 1.626000 154.000000 157.000000 146.000000
-19.251000 36.852000 1.460000 161.000000 163.000000 152.000000
-19.145000 36.848000 1.645000 155.000000 157.000000 144.000000
-18.962000 36.844000 1.663000 155.000000 155.000000 145.000000
-19.293000 36.853000 1.384000 164.000000 168.000000 154.000000
-19.274000 36.851000 1.590000 161.000000 161.000000 153.000000
-19.023000 36.845000 1.669000 153.000000 155.000000 144.000000
-19.241000 36.850000 1.634000 157.000000 160.000000 149.000000
-18.959000 36.843000 1.756000 154.000000 154.000000 144.000000
-19.061000 36.847000 1.591000 154.000000 157.000000 146.000000
-19.017000 36.845000 1.672000 154.000000 156.000000 145.000000
-19.304000 36.852000 1.596000 161.000000 158.000000 149.000000
-19.254000 36.852000 1.457000 161.000000 163.000000 152.000000
-19.232000 36.850000 1.645000 157.000000 159.000000 148.000000
-19.332000 36.852000 1.594000 119.000000 117.000000 96.000000
-19.207000 36.851000 1.417000 156.000000 162.000000 150.000000
-19.210000 36.851000 1.453000 160.000000 162.000000 151.000000
-19.220000 36.851000 1.466000 160.000000 162.000000 151.000000
-18.921000 36.843000 1.711000 153.000000 154.000000 146.000000
-19.292000 36.852000 1.543000 161.000000 164.000000 155.000000
-19.291000 36.852000 1.500000 156.000000 163.000000 155.000000
-19.016000 36.845000 1.674000 154.000000 156.000000 145.000000
-19.074000 36.847000 1.583000 155.000000 159.000000 145.000000
-19.388000 36.856000 1.249000 147.000000 137.000000 102.000000
-19.133000 36.849000 1.528000 159.000000 159.000000 147.000000
-19.326000 36.854000 1.347000 169.000000 168.000000 164.000000
