-20.407000 38.126000 0.734000 69.000000 69.000000 71.000000
-20.427000 37.947000 0.766000 86.000000 84.000000 85.000000
-20.440000 38.045000 0.782000 73.000000 73.000000 73.000000
-20.419000 37.959000 0.755000 80.000000 80.000000 80.000000
-20.436000 37.940000 0.779000 82.000000 80.000000 81.000000
-20.401000 38.027000 0.728000 79.000000 79.000000 79.000000
-20.430000 38.051000 0.768000 73.000000 73.000000 73.000000
-20.487000 37.935000 0.851000 171.000000 169.000000 157.000000
-20.433000 37.991000 0.774000 91.000000 91.000000 89.000000
-20.400000 38.038000 0.727000 77.000000 75.000000 76.000000
-20.394000 38.101000 0.716000 75.000000 74.000000 72.000000
-20.418000 37.994000 0.753000 84.000000 84.000000 86.000000
-20.406000 37.995000 0.736000 81.000000 81.000000 81.000000
-20.491000 37.950000 0.857000 174.000000 175.000000 157.000000
-20.410000 38.079000 0.739000 71.000000 70.000000 68.000000
-20.426000 38.055000 0.762000 74.000000 74.000000 74.000000
-20.455000 38.023000 0.803000 83.000000 85.000000 84.000000
-20.440000 37.983000 0.783000 86.000000 88.000000 87.000000
-20.437000 37.976000 0.779000 85.000000 85.000000 85.000000
-20.419000 38.044000 0.753000 75.000000 75.000000 75.000000
-20.422000 38.025000 0.757000 78.000000 78.000000 78.000000
-20.432000 38.040000 0.771000 72.000000 72.000000 72.000000
-20.477000 37.932000 0.837000 84.000000 83.000000 88.000000
-20.477000 37.933000 0.838000 87.000000 87.000000 89.000000
-20.448000 37.969000 0.795000 81.000000 79.000000 82.000000
-20.467000 37.971000 0.823000 84.000000 84.000000 86.000000
-20.424000 37.984000 0.761000 85.000000 83.000000 84.000000
-20.464000 37.992000 0.818000 76.000000 77.000000 79.000000
-20.433000 38.017000 0.773000 74.000000 74.000000 74.000000
-20.398000 37.958000 0.594000 59.000000 59.000000 61.000000
-20.386000 38.127000 0.677000 71.000000 71.000000 69.000000
-20.397000 38.018000 0.662000 70.000000 67.000000 62.000000
-20.399000 38.016000 0.685000 73.000000 72.000000 70.000000
-20.406000 37.942000 0.673000 75.000000 74.000000 70.000000
-20.407000 37.960000 0.720000 85.000000 86.000000 81.000000
-20.400000 38.016000 0.711000 77.000000 76.000000 74.000000
-20.385000 38.128000 0.668000 75.000000 71.000000 72.000000
-20.385000 38.118000 0.660000 71.000000 70.000000 68.000000
-20.391000 38.069000 0.660000 69.000000 68.000000 63.000000
-20.393000 38.076000 0.694000 70.000000 71.000000 66.000000
-20.388000 38.090000 0.649000 64.000000 65.000000 60.000000
-20.403000 37.986000 0.708000 82.000000 81.000000 79.000000
-20.398000 37.994000 0.644000 70.000000 69.000000 64.000000
-20.408000 37.956000 0.729000 83.000000 85.000000 80.000000
-20.397000 38.022000 0.673000 72.000000 68.000000 65.000000
-20.405000 37.946000 0.666000 74.000000 73.000000 68.000000
-20.395000 37.981000 0.590000 53.000000 53.000000 55.000000
-20.399000 38.029000 0.712000 77.000000 76.000000 74.000000
-20.391000 38.038000 0.619000 64.000000 64.000000 62.000000
-20.404000 37.996000 0.730000 83.000000 81.000000 82.000000
-20.402000 37.950000 0.632000 68.000000 69.000000 64.000000
-20.394000 38.048000 0.669000 74.000000 70.000000 67.000000
-20.397000 38.001000 0.641000 68.000000 69.000000 64.000000
-20.399000 38.018000 0.691000 72.000000 71.000000 69.000000
-20.393000 38.019000 0.621000 61.000000 61.000000 59.000000
-20.393000 38.065000 0.684000 67.000000 66.000000 64.000000
-20.397000 38.018000 0.667000 73.000000 69.000000 66.000000
-20.398000 37.958000 0.601000 61.000000 61.000000 63.000000
-20.403000 37.974000 0.681000 75.000000 74.000000 70.000000
-20.386000 38.113000 0.658000 67.000000 66.000000 64.000000
-20.392000 38.058000 0.655000 67.000000 66.000000 61.000000
-20.393000 38.042000 0.649000 68.000000 67.000000 62.000000
-20.394000 38.072000 0.708000 72.000000 71.000000 69.000000
-20.380000 38.189000 0.694000 163.000000 163.000000 135.000000
-20.396000 38.026000 0.671000 73.000000 69.000000 66.000000
-20.409000 37.959000 0.735000 84.000000 86.000000 83.000000
-20.401000 37.965000 0.650000 74.000000 73.000000 68.000000
-20.396000 38.059000 0.718000 75.000000 74.000000 72.000000
-20.397000 38.042000 0.699000 77.000000 76.000000 74.000000
-20.399000 38.029000 0.706000 74.000000 73.000000 71.000000
-20.402000 37.958000 0.648000 73.000000 72.000000 67.000000
-20.393000 38.007000 0.603000 60.000000 60.000000 60.000000
-20.394000 38.050000 0.680000 76.000000 72.000000 71.000000
-20.389000 38.119000 0.706000 70.000000 72.000000 71.000000
-20.402000 37.949000 0.637000 70.000000 71.000000 66.000000
-20.407000 37.961000 0.718000 82.000000 83.000000 78.000000
-20.397000 38.012000 0.662000 71.000000 68.000000 63.000000
-20.405000 37.966000 0.703000 81.000000 80.000000 76.000000
-20.403000 37.989000 0.700000 77.000000 73.000000 72.000000
-20.392000 38.087000 0.707000 70.000000 69.000000 67.000000
-20.391000 38.077000 0.668000 71.000000 67.000000 64.000000
-20.386000 38.125000 0.680000 71.000000 71.000000 69.000000
-20.390000 38.066000 0.642000 62.000000 63.000000 57.000000
-20.405000 37.987000 0.733000 85.000000 85.000000 85.000000
-20.392000 38.034000 0.626000 63.000000 64.000000 59.000000
-20.388000 38.119000 0.693000 71.000000 73.000000 72.000000
-20.408000 37.954000 0.724000 87.000000 87.000000 85.000000
-20.390000 38.103000 0.701000 71.000000 72.000000 67.000000
-20.399000 38.032000 0.712000 77.000000 76.000000 74.000000
-20.401000 37.978000 0.662000 75.000000 71.000000 68.000000
-20.404000 37.952000 0.665000 77.000000 73.000000 70.000000
-20.388000 38.094000 0.657000 68.000000 67.000000 63.000000
-20.395000 38.030000 0.662000 69.000000 66.000000 61.000000
-20.395000 38.019000 0.645000 68.000000 69.000000 63.000000
-20.405000 37.974000 0.707000 81.000000 80.000000 76.000000
-20.401000 37.998000 0.696000 75.000000 74.000000 72.000000
-20.401000 37.978000 0.670000 78.000000 74.000000 71.000000
-20.398000 37.995000 0.651000 74.000000 71.000000 66.000000
-20.405000 37.959000 0.696000 81.000000 81.000000 73.000000
-20.406000 37.939000 0.671000 75.000000 74.000000 70.000000
-20.397000 37.970000 0.593000 57.000000 57.000000 59.000000
-20.396000 38.041000 0.683000 77.000000 73.000000 72.000000
-20.393000 38.027000 0.633000 66.000000 67.000000 62.000000
-20.406000 37.950000 0.691000 76.000000 79.000000 72.000000
-20.389000 38.101000 0.683000 74.000000 75.000000 69.000000
-20.398000 38.049000 0.722000 78.000000 76.000000 77.000000
-20.398000 37.993000 0.642000 70.000000 69.000000 64.000000
-20.402000 38.016000 0.726000 80.000000 78.000000 79.000000
-20.398000 38.005000 0.663000 72.000000 69.000000 64.000000
-20.410000 37.949000 0.734000 88.000000 87.000000 85.000000
-20.402000 38.014000 0.729000 80.000000 80.000000 80.000000
-20.397000 38.009000 0.653000 71.000000 70.000000 65.000000
-20.402000 37.979000 0.684000 76.000000 75.000000 71.000000
-20.405000 37.957000 0.684000 81.000000 80.000000 75.000000
-20.401000 37.957000 0.628000 68.000000 69.000000 64.000000
-20.405000 37.960000 0.690000 78.000000 78.000000 70.000000
-20.397000 37.991000 0.630000 67.000000 68.000000 63.000000
-20.404000 37.990000 0.715000 83.000000 82.000000 80.000000
-20.385000 38.122000 0.664000 74.000000 70.000000 71.000000
-20.403000 37.942000 0.635000 69.000000 68.000000 63.000000
-20.393000 38.059000 0.675000 73.000000 69.000000 66.000000
-20.406000 37.951000 0.695000 78.000000 81.000000 74.000000
-20.388000 38.095000 0.662000 71.000000 67.000000 64.000000
-20.395000 38.021000 0.651000 69.000000 68.000000 63.000000
-20.400000 37.941000 0.600000 62.000000 60.000000 63.000000
-20.404000 37.948000 0.665000 74.000000 73.000000 68.000000
-20.392000 38.039000 0.639000 65.000000 66.000000 61.000000
-20.397000 37.978000 0.612000 64.000000 66.000000 65.000000
-20.394000 38.036000 0.661000 71.000000 68.000000 63.000000
-20.408000 37.960000 0.733000 83.000000 85.000000 82.000000
-20.401000 38.002000 0.704000 79.000000 75.000000 74.000000
-20.400000 37.941000 0.597000 61.000000 59.000000 62.000000
-20.396000 38.061000 0.714000 76.000000 75.000000 73.000000
-20.407000 37.948000 0.697000 79.000000 81.000000 76.000000
-20.389000 38.088000 0.663000 71.000000 67.000000 64.000000
-20.391000 38.097000 0.696000 72.000000 71.000000 69.000000
-20.399000 37.972000 0.632000 68.000000 69.000000 64.000000
-20.398000 37.992000 0.651000 73.000000 70.000000 65.000000
-20.396000 37.991000 0.614000 65.000000 65.000000 63.000000
-20.397000 37.998000 0.642000 69.000000 70.000000 65.000000
-20.395000 38.039000 0.676000 76.000000 72.000000 71.000000
-20.402000 37.929000 0.602000 63.000000 61.000000 64.000000
-20.398000 38.027000 0.699000 73.000000 72.000000 70.000000
-20.406000 37.946000 0.683000 80.000000 81.000000 76.000000
-20.396000 38.034000 0.682000 76.000000 72.000000 71.000000
-20.391000 38.035000 0.618000 64.000000 64.000000 62.000000
-20.399000 37.947000 0.596000 60.000000 60.000000 62.000000
-20.397000 38.028000 0.687000 71.000000 70.000000 68.000000
-20.409000 37.950000 0.728000 85.000000 85.000000 83.000000
-20.381000 38.174000 0.688000 170.000000 171.000000 153.000000
-20.408000 37.961000 0.734000 83.000000 85.000000 82.000000
-20.402000 38.002000 0.712000 80.000000 76.000000 75.000000
-20.397000 38.012000 0.661000 71.000000 68.000000 63.000000
-20.382000 38.171000 0.691000 167.000000 166.000000 148.000000
-20.398000 38.024000 0.688000 72.000000 71.000000 69.000000
-20.396000 38.000000 0.626000 65.000000 65.000000 63.000000
-20.393000 38.010000 0.606000 60.000000 60.000000 60.000000
-20.390000 38.085000 0.673000 71.000000 67.000000 64.000000
-20.387000 38.110000 0.663000 68.000000 67.000000 65.000000
-20.403000 37.946000 0.643000 72.000000 71.000000 66.000000
-20.401000 37.976000 0.662000 75.000000 71.000000 68.000000
-20.391000 38.089000 0.694000 70.000000 71.000000 66.000000
-20.398000 37.996000 0.656000 73.000000 69.000000 66.000000
-20.401000 38.006000 0.706000 76.000000 75.000000 73.000000
-20.403000 37.994000 0.709000 81.000000 77.000000 76.000000
-20.396000 37.994000 0.625000 68.000000 68.000000 66.000000
-20.394000 38.006000 0.605000 61.000000 61.000000 61.000000
-20.383000 38.161000 0.689000 115.000000 113.000000 101.000000
-20.405000 37.944000 0.670000 74.000000 73.000000 69.000000
-20.405000 37.936000 0.652000 72.000000 71.000000 67.000000
-20.395000 38.000000 0.620000 62.000000 62.000000 60.000000
-20.392000 38.073000 0.675000 71.000000 67.000000 64.000000
-20.403000 38.004000 0.724000 78.000000 76.000000 77.000000
-20.396000 38.025000 0.665000 70.000000 67.000000 62.000000
-20.400000 37.949000 0.612000 67.000000 69.000000 68.000000
-20.403000 37.930000 0.619000 67.000000 67.000000 65.000000
-20.399000 38.026000 0.706000 76.000000 75.000000 73.000000
-20.404000 37.990000 0.724000 83.000000 82.000000 80.000000
-20.395000 38.019000 0.644000 66.000000 67.000000 62.000000
-20.387000 38.109000 0.664000 68.000000 67.000000 65.000000
-20.397000 37.995000 0.639000 69.000000 68.000000 63.000000
-20.402000 37.985000 0.691000 76.000000 75.000000 71.000000
-20.399000 37.924000 0.564000 47.000000 46.000000 41.000000
-20.389000 38.111000 0.692000 63.000000 66.000000 59.000000
-20.399000 37.961000 0.615000 66.000000 66.000000 64.000000
-20.403000 37.989000 0.702000 81.000000 77.000000 76.000000
-20.387000 38.103000 0.663000 70.000000 71.000000 66.000000
-20.408000 37.956000 0.729000 83.000000 85.000000 80.000000
-20.397000 38.044000 0.706000 77.000000 76.000000 74.000000
-20.393000 38.066000 0.688000 66.000000 65.000000 63.000000
-20.402000 37.951000 0.638000 70.000000 71.000000 66.000000
-20.400000 37.982000 0.658000 73.000000 69.000000 66.000000
-20.402000 37.950000 0.638000 70.000000 71.000000 66.000000
-20.393000 38.060000 0.680000 73.000000 69.000000 66.000000
-20.388000 38.114000 0.686000 71.000000 73.000000 68.000000
-20.399000 38.018000 0.695000 73.000000 71.000000 72.000000
-20.400000 37.949000 0.612000 67.000000 69.000000 68.000000
-20.384000 38.142000 0.676000 51.000000 46.000000 50.000000
-20.396000 37.979000 0.594000 56.000000 56.000000 58.000000
-20.399000 37.981000 0.646000 70.000000 69.000000 64.000000
-20.393000 38.069000 0.688000 66.000000 65.000000 63.000000
-20.402000 37.995000 0.697000 75.000000 74.000000 72.000000
-20.395000 38.062000 0.708000 75.000000 74.000000 72.000000
-20.406000 37.973000 0.722000 86.000000 86.000000 84.000000
-20.403000 37.952000 0.649000 72.000000 71.000000 66.000000
-20.388000 38.108000 0.679000 72.000000 73.000000 68.000000
-20.400000 37.946000 0.609000 65.000000 67.000000 66.000000
-20.401000 37.968000 0.651000 78.000000 74.000000 71.000000
-20.393000 38.025000 0.627000 64.000000 65.000000 60.000000
-20.391000 38.071000 0.665000 71.000000 67.000000 64.000000
-20.399000 37.927000 0.564000 46.000000 45.000000 40.000000
-20.395000 38.049000 0.687000 70.000000 69.000000 67.000000
-20.401000 37.958000 0.635000 71.000000 72.000000 67.000000
-20.398000 37.989000 0.641000 69.000000 68.000000 63.000000
-20.397000 37.988000 0.619000 63.000000 63.000000 61.000000
-20.403000 38.001000 0.720000 80.000000 78.000000 79.000000
-20.401000 38.001000 0.699000 78.000000 74.000000 73.000000
-20.390000 38.099000 0.692000 69.000000 70.000000 64.000000
-20.394000 38.058000 0.689000 68.000000 67.000000 65.000000
-20.391000 38.087000 0.690000 67.000000 68.000000 63.000000
-20.399000 38.014000 0.688000 73.000000 72.000000 70.000000
-20.396000 38.025000 0.663000 70.000000 67.000000 62.000000
-20.409000 37.954000 0.734000 88.000000 87.000000 85.000000
-20.396000 37.976000 0.589000 53.000000 53.000000 55.000000
-20.397000 38.035000 0.695000 75.000000 73.000000 74.000000
-20.388000 38.121000 0.694000 71.000000 73.000000 72.000000
-20.395000 37.993000 0.611000 63.000000 63.000000 63.000000
-20.391000 38.102000 0.710000 73.000000 72.000000 68.000000
-20.399000 37.923000 0.561000 47.000000 46.000000 41.000000
-20.388000 38.108000 0.684000 69.000000 70.000000 64.000000
-20.388000 38.088000 0.654000 68.000000 67.000000 63.000000
-20.403000 37.958000 0.661000 78.000000 74.000000 71.000000
-20.399000 38.020000 0.692000 72.000000 71.000000 69.000000
-20.401000 37.936000 0.606000 66.000000 64.000000 67.000000
-20.396000 38.010000 0.639000 66.000000 67.000000 62.000000
-20.406000 37.949000 0.686000 78.000000 79.000000 73.000000
-20.391000 38.097000 0.704000 69.000000 68.000000 66.000000
-20.386000 38.138000 0.690000 55.000000 55.000000 53.000000
-20.399000 37.951000 0.601000 61.000000 61.000000 63.000000
-20.400000 38.015000 0.707000 75.000000 74.000000 72.000000
-20.398000 37.975000 0.624000 66.000000 66.000000 64.000000
-20.399000 37.955000 0.610000 66.000000 68.000000 67.000000
-20.406000 37.980000 0.727000 85.000000 85.000000 83.000000
-20.385000 38.145000 0.698000 42.000000 38.000000 35.000000
-20.395000 38.013000 0.637000 65.000000 66.000000 61.000000
-20.391000 38.070000 0.657000 69.000000 68.000000 63.000000
-20.400000 38.013000 0.704000 75.000000 74.000000 72.000000
-20.400000 37.937000 0.587000 59.000000 57.000000 60.000000
-20.390000 38.089000 0.677000 73.000000 69.000000 66.000000
-20.398000 38.050000 0.721000 78.000000 76.000000 77.000000
-20.399000 38.005000 0.681000 75.000000 71.000000 70.000000
-20.391000 38.079000 0.671000 71.000000 67.000000 64.000000
-20.404000 37.989000 0.724000 83.000000 82.000000 80.000000
-20.398000 37.993000 0.644000 70.000000 69.000000 64.000000
-20.402000 37.954000 0.638000 70.000000 71.000000 66.000000
-20.381000 38.181000 0.695000 168.000000 168.000000 144.000000
-20.397000 38.005000 0.649000 70.000000 69.000000 64.000000
-20.403000 37.937000 0.634000 69.000000 68.000000 63.000000
-20.399000 37.934000 0.572000 51.000000 50.000000 48.000000
-20.370000 37.762000 0.651000 76.000000 70.000000 72.000000
-20.385000 37.824000 0.580000 51.000000 49.000000 50.000000
-20.382000 37.860000 0.654000 79.000000 75.000000 76.000000
-20.375000 37.829000 0.693000 80.000000 78.000000 79.000000
-20.371000 37.758000 0.641000 72.000000 67.000000 71.000000
-20.388000 37.851000 0.588000 56.000000 54.000000 57.000000
-20.381000 37.816000 0.606000 60.000000 61.000000 65.000000
-20.383000 37.846000 0.631000 71.000000 70.000000 68.000000
-20.375000 37.765000 0.607000 61.000000 61.000000 63.000000
-20.374000 37.774000 0.629000 67.000000 66.000000 71.000000
-20.366000 37.772000 0.707000 79.000000 77.000000 78.000000
-20.390000 37.881000 0.607000 61.000000 59.000000 62.000000
-20.371000 37.746000 0.627000 63.000000 63.000000 65.000000
-20.378000 37.818000 0.640000 68.000000 68.000000 68.000000
-20.375000 37.830000 0.690000 78.000000 78.000000 78.000000
-20.366000 37.795000 0.736000 85.000000 85.000000 87.000000
-20.380000 37.826000 0.632000 65.000000 67.000000 66.000000
-20.371000 37.809000 0.703000 84.000000 83.000000 81.000000
-20.384000 37.846000 0.621000 65.000000 64.000000 62.000000
-20.390000 37.874000 0.598000 61.000000 59.000000 62.000000
-20.364000 37.796000 0.761000 81.000000 81.000000 83.000000
-20.372000 37.822000 0.706000 83.000000 81.000000 82.000000
-20.384000 37.811000 0.576000 43.000000 42.000000 37.000000
-20.397000 37.902000 0.561000 49.000000 48.000000 43.000000
-20.380000 37.843000 0.659000 81.000000 77.000000 76.000000
-20.394000 37.891000 0.573000 46.000000 45.000000 41.000000
-20.366000 37.777000 0.711000 82.000000 80.000000 83.000000
-20.369000 37.809000 0.728000 83.000000 83.000000 85.000000
-20.368000 37.746000 0.652000 72.000000 66.000000 66.000000
-20.367000 37.801000 0.740000 83.000000 83.000000 85.000000
-20.372000 37.732000 0.593000 43.000000 45.000000 44.000000
-20.372000 37.819000 0.707000 83.000000 81.000000 82.000000
-20.376000 37.778000 0.614000 62.000000 61.000000 66.000000
-20.370000 37.811000 0.713000 85.000000 84.000000 82.000000
-20.371000 37.732000 0.601000 54.000000 54.000000 56.000000
-20.385000 37.834000 0.589000 58.000000 57.000000 62.000000
-20.367000 37.736000 0.647000 69.000000 63.000000 63.000000
-20.372000 37.767000 0.635000 69.000000 67.000000 72.000000
-20.370000 37.766000 0.657000 81.000000 75.000000 75.000000
-20.392000 37.869000 0.566000 48.000000 47.000000 43.000000
-20.369000 37.752000 0.650000 71.000000 67.000000 68.000000
-20.367000 37.785000 0.717000 83.000000 81.000000 84.000000
-20.373000 37.799000 0.668000 75.000000 73.000000 74.000000
-20.379000 37.779000 0.579000 44.000000 45.000000 40.000000
-20.383000 37.851000 0.637000 75.000000 71.000000 72.000000
-20.388000 37.848000 0.582000 55.000000 53.000000 54.000000
-20.380000 37.781000 0.580000 44.000000 43.000000 39.000000
-20.369000 37.761000 0.667000 76.000000 70.000000 72.000000
-20.374000 37.760000 0.608000 61.000000 61.000000 63.000000
-20.380000 37.833000 0.639000 71.000000 71.000000 69.000000
-20.372000 37.814000 0.698000 87.000000 83.000000 84.000000
-20.365000 37.754000 0.695000 78.000000 77.000000 73.000000
-20.376000 37.792000 0.634000 67.000000 67.000000 69.000000
-20.372000 37.768000 0.644000 72.000000 68.000000 69.000000
-20.394000 37.900000 0.584000 56.000000 54.000000 55.000000
-20.378000 37.772000 0.587000 51.000000 51.000000 49.000000
-20.375000 37.794000 0.647000 72.000000 68.000000 69.000000
-20.369000 37.738000 0.637000 70.000000 66.000000 67.000000
-20.389000 37.850000 0.577000 55.000000 53.000000 54.000000
-20.374000 37.749000 0.596000 53.000000 54.000000 56.000000
-20.388000 37.861000 0.595000 60.000000 58.000000 63.000000
-20.367000 37.777000 0.703000 79.000000 77.000000 78.000000
-20.369000 37.752000 0.649000 71.000000 67.000000 68.000000
-20.366000 37.749000 0.676000 80.000000 79.000000 75.000000
-20.381000 37.840000 0.638000 72.000000 71.000000 69.000000
-20.387000 37.857000 0.602000 63.000000 61.000000 64.000000
-20.387000 37.844000 0.584000 58.000000 56.000000 59.000000
-20.371000 37.820000 0.718000 82.000000 84.000000 83.000000
-20.370000 37.736000 0.623000 61.000000 61.000000 61.000000
-20.383000 37.839000 0.622000 63.000000 63.000000 61.000000
-20.366000 37.759000 0.689000 78.000000 77.000000 73.000000
-20.386000 37.829000 0.573000 46.000000 46.000000 44.000000
-20.369000 37.790000 0.697000 80.000000 78.000000 81.000000
-20.375000 37.772000 0.619000 65.000000 64.000000 69.000000
-20.377000 37.788000 0.617000 63.000000 64.000000 69.000000
-20.370000 37.785000 0.686000 76.000000 74.000000 77.000000
-20.381000 37.810000 0.600000 57.000000 57.000000 59.000000
-20.380000 37.783000 0.582000 45.000000 46.000000 41.000000
-20.376000 37.788000 0.631000 67.000000 66.000000 71.000000
-20.371000 37.779000 0.662000 77.000000 73.000000 74.000000
-20.381000 37.833000 0.632000 68.000000 68.000000 66.000000
-20.364000 37.774000 0.734000 83.000000 81.000000 84.000000
-20.388000 37.836000 0.570000 38.000000 38.000000 36.000000
-20.389000 37.870000 0.600000 62.000000 60.000000 63.000000
-20.370000 37.807000 0.716000 85.000000 84.000000 82.000000
-20.365000 37.753000 0.691000 78.000000 77.000000 73.000000
-20.394000 37.891000 0.571000 46.000000 45.000000 41.000000
-20.379000 37.817000 0.633000 65.000000 66.000000 68.000000
-20.372000 37.776000 0.657000 79.000000 73.000000 73.000000
-20.369000 37.761000 0.663000 76.000000 70.000000 72.000000
-20.372000 37.796000 0.675000 76.000000 74.000000 77.000000
-20.373000 37.793000 0.666000 74.000000 72.000000 73.000000
-20.374000 37.749000 0.599000 53.000000 54.000000 56.000000
-20.377000 37.779000 0.603000 59.000000 59.000000 61.000000
-20.375000 37.761000 0.600000 58.000000 58.000000 58.000000
-20.371000 37.795000 0.683000 78.000000 76.000000 79.000000
-20.380000 37.781000 0.580000 44.000000 43.000000 39.000000
-20.375000 37.793000 0.647000 72.000000 68.000000 69.000000
-20.362000 37.774000 0.746000 84.000000 82.000000 85.000000
-20.377000 37.810000 0.647000 70.000000 70.000000 70.000000
-20.382000 37.854000 0.646000 76.000000 72.000000 73.000000
-20.364000 37.793000 0.752000 81.000000 81.000000 83.000000
-20.395000 37.902000 0.575000 49.000000 48.000000 46.000000
-20.386000 37.842000 0.597000 60.000000 59.000000 64.000000
-20.369000 37.781000 0.684000 76.000000 74.000000 77.000000
-20.388000 37.867000 0.608000 62.000000 60.000000 63.000000
-20.368000 37.753000 0.658000 76.000000 70.000000 70.000000
-20.371000 37.786000 0.677000 74.000000 72.000000 75.000000
-20.370000 37.725000 0.602000 51.000000 51.000000 53.000000
-20.377000 37.794000 0.622000 65.000000 66.000000 70.000000
-20.366000 37.760000 0.689000 78.000000 77.000000 73.000000
-20.393000 37.881000 0.576000 52.000000 50.000000 51.000000
-20.366000 37.746000 0.676000 80.000000 79.000000 77.000000
-20.368000 37.761000 0.670000 78.000000 74.000000 75.000000
-20.375000 37.832000 0.696000 79.000000 79.000000 79.000000
-20.384000 37.832000 0.598000 59.000000 58.000000 63.000000
-20.372000 37.813000 0.702000 87.000000 83.000000 84.000000
-20.388000 37.839000 0.572000 44.000000 44.000000 44.000000
-20.384000 37.809000 0.574000 46.000000 43.000000 38.000000
-20.385000 37.863000 0.632000 73.000000 71.000000 72.000000
-20.362000 37.788000 0.765000 83.000000 83.000000 85.000000
-20.389000 37.874000 0.603000 61.000000 59.000000 62.000000
-20.380000 37.786000 0.586000 48.000000 49.000000 44.000000
-20.384000 37.817000 0.578000 45.000000 44.000000 40.000000
-20.395000 37.900000 0.576000 53.000000 52.000000 50.000000
-20.369000 37.758000 0.657000 79.000000 73.000000 73.000000
-20.372000 37.795000 0.679000 77.000000 75.000000 78.000000
-20.392000 37.886000 0.587000 57.000000 55.000000 58.000000
-20.366000 37.802000 0.745000 83.000000 83.000000 85.000000
-20.366000 37.758000 0.693000 78.000000 77.000000 73.000000
-20.370000 37.772000 0.666000 77.000000 73.000000 74.000000
-20.372000 37.779000 0.651000 75.000000 69.000000 69.000000
-20.384000 37.854000 0.630000 72.000000 70.000000 71.000000
-20.386000 37.843000 0.593000 60.000000 59.000000 64.000000
-20.369000 37.736000 0.627000 63.000000 63.000000 63.000000
-20.364000 37.767000 0.719000 83.000000 81.000000 82.000000
-20.394000 37.898000 0.583000 57.000000 55.000000 56.000000
-20.377000 37.800000 0.632000 65.000000 65.000000 67.000000
-20.381000 37.831000 0.628000 65.000000 67.000000 66.000000
-20.375000 37.784000 0.632000 67.000000 66.000000 71.000000
-20.369000 37.761000 0.663000 77.000000 71.000000 73.000000
-20.372000 37.783000 0.656000 75.000000 71.000000 70.000000
-20.371000 37.776000 0.661000 78.000000 74.000000 75.000000
-20.376000 37.780000 0.620000 65.000000 64.000000 69.000000
-20.375000 37.785000 0.633000 67.000000 67.000000 69.000000
-20.374000 37.829000 0.698000 79.000000 79.000000 79.000000
-20.375000 37.815000 0.672000 75.000000 73.000000 74.000000
-20.382000 37.834000 0.626000 65.000000 65.000000 65.000000
-20.383000 37.829000 0.611000 61.000000 60.000000 65.000000
-20.378000 37.827000 0.656000 76.000000 76.000000 74.000000
-20.387000 37.872000 0.626000 72.000000 70.000000 71.000000
-20.377000 37.765000 0.586000 46.000000 46.000000 44.000000
-20.398000 37.912000 0.562000 47.000000 46.000000 41.000000
-20.366000 37.761000 0.695000 78.000000 77.000000 72.000000
-20.369000 37.805000 0.720000 85.000000 84.000000 82.000000
-20.372000 37.724000 0.590000 42.000000 44.000000 43.000000
-20.392000 37.867000 0.566000 48.000000 47.000000 43.000000
-20.387000 37.833000 0.571000 39.000000 39.000000 37.000000
-20.367000 37.774000 0.697000 78.000000 76.000000 77.000000
-20.373000 37.823000 0.698000 82.000000 80.000000 81.000000
-20.383000 37.807000 0.584000 52.000000 51.000000 47.000000
-20.374000 37.739000 0.584000 40.000000 42.000000 39.000000
-20.397000 37.904000 0.564000 47.000000 46.000000 41.000000
-20.373000 37.746000 0.598000 52.000000 53.000000 55.000000
-20.381000 37.827000 0.626000 64.000000 66.000000 65.000000
-20.369000 37.725000 0.616000 60.000000 60.000000 60.000000
-20.369000 37.753000 0.649000 71.000000 67.000000 68.000000
-20.365000 37.767000 0.709000 81.000000 79.000000 80.000000
-20.366000 37.790000 0.726000 86.000000 84.000000 87.000000
-20.366000 37.757000 0.690000 78.000000 77.000000 73.000000
-20.383000 37.828000 0.606000 61.000000 60.000000 65.000000
-20.374000 37.820000 0.691000 84.000000 82.000000 83.000000
-20.373000 37.766000 0.630000 68.000000 66.000000 71.000000
-20.385000 37.871000 0.638000 75.000000 74.000000 72.000000
-20.372000 37.799000 0.683000 79.000000 77.000000 80.000000
-20.384000 37.859000 0.637000 76.000000 72.000000 71.000000
-20.394000 37.896000 0.577000 53.000000 52.000000 50.000000
-20.381000 37.834000 0.636000 69.000000 69.000000 67.000000
-20.386000 37.824000 0.572000 42.000000 41.000000 37.000000
-20.383000 37.816000 0.593000 62.000000 62.000000 64.000000
-20.368000 37.727000 0.628000 61.000000 61.000000 59.000000
-20.387000 37.859000 0.607000 62.000000 60.000000 63.000000
-20.382000 37.823000 0.611000 62.000000 61.000000 66.000000
-20.363000 37.765000 0.727000 80.000000 80.000000 82.000000
-20.374000 37.752000 0.597000 56.000000 56.000000 56.000000
-20.373000 37.799000 0.667000 75.000000 73.000000 74.000000
-20.365000 37.768000 0.717000 83.000000 81.000000 82.000000
-20.364000 37.781000 0.736000 85.000000 83.000000 86.000000
-20.376000 37.798000 0.635000 67.000000 65.000000 68.000000
-20.379000 37.787000 0.590000 53.000000 53.000000 51.000000
-20.381000 37.795000 0.586000 53.000000 53.000000 51.000000
-20.389000 37.873000 0.606000 62.000000 60.000000 63.000000
-20.379000 37.842000 0.660000 81.000000 77.000000 76.000000
-20.387000 37.860000 0.611000 63.000000 61.000000 64.000000
-20.364000 37.775000 0.735000 83.000000 81.000000 84.000000
-20.373000 37.757000 0.613000 63.000000 61.000000 64.000000
-20.390000 37.874000 0.596000 61.000000 59.000000 62.000000
-20.373000 37.771000 0.640000 70.000000 65.000000 69.000000
-20.370000 37.811000 0.720000 84.000000 83.000000 81.000000
-20.372000 37.817000 0.705000 83.000000 81.000000 82.000000
-20.371000 37.819000 0.713000 82.000000 82.000000 82.000000
-20.376000 37.803000 0.649000 74.000000 70.000000 69.000000
-20.364000 37.787000 0.743000 86.000000 84.000000 87.000000
-20.384000 37.854000 0.626000 70.000000 68.000000 69.000000
-20.397000 37.909000 0.564000 47.000000 46.000000 41.000000
-20.376000 37.821000 0.670000 72.000000 72.000000 70.000000
-20.369000 37.790000 0.702000 81.000000 79.000000 82.000000
-20.374000 37.793000 0.649000 74.000000 70.000000 69.000000
-20.378000 37.840000 0.675000 76.000000 76.000000 76.000000
-20.391000 37.860000 0.569000 45.000000 44.000000 42.000000
-20.384000 37.860000 0.640000 76.000000 72.000000 71.000000
-20.391000 37.866000 0.570000 49.000000 48.000000 46.000000
-20.387000 37.869000 0.620000 69.000000 67.000000 68.000000
-20.367000 37.790000 0.721000 85.000000 83.000000 86.000000
-20.388000 37.843000 0.576000 52.000000 51.000000 49.000000
-20.379000 37.779000 0.587000 48.000000 49.000000 44.000000
-20.369000 37.763000 0.663000 77.000000 71.000000 73.000000
-20.394000 37.898000 0.720000 85.000000 85.000000 85.000000
-20.393000 37.894000 0.656000 74.000000 72.000000 73.000000
-20.392000 37.892000 0.643000 74.000000 73.000000 71.000000
-20.385000 37.868000 0.726000 87.000000 85.000000 86.000000
-20.395000 37.904000 0.649000 76.000000 72.000000 71.000000
-20.392000 37.894000 0.609000 63.000000 63.000000 63.000000
-20.371000 37.821000 0.725000 81.000000 82.000000 84.000000
-20.400000 37.921000 0.575000 53.000000 51.000000 52.000000
-20.401000 37.925000 0.590000 58.000000 56.000000 59.000000
-20.389000 37.879000 0.729000 89.000000 87.000000 88.000000
-20.400000 37.917000 0.735000 90.000000 90.000000 92.000000
-20.367000 37.808000 0.753000 83.000000 84.000000 86.000000
-20.400000 37.920000 0.624000 67.000000 68.000000 63.000000
-20.401000 37.922000 0.645000 75.000000 71.000000 68.000000
-20.383000 37.861000 0.722000 85.000000 83.000000 84.000000
-20.406000 37.938000 0.698000 78.000000 80.000000 75.000000
-20.396000 37.904000 0.678000 74.000000 78.000000 77.000000
-20.379000 37.850000 0.695000 81.000000 77.000000 78.000000
-20.392000 37.894000 0.627000 67.000000 68.000000 63.000000
-20.398000 37.914000 0.606000 62.000000 60.000000 61.000000
-20.407000 37.941000 0.696000 79.000000 81.000000 76.000000
-20.399000 37.917000 0.644000 73.000000 72.000000 68.000000
-20.380000 37.851000 0.679000 79.000000 77.000000 78.000000
-20.406000 37.938000 0.677000 77.000000 78.000000 73.000000
-20.391000 37.888000 0.708000 82.000000 82.000000 82.000000
-20.386000 37.874000 0.669000 80.000000 76.000000 77.000000
-20.406000 37.935000 0.724000 88.000000 88.000000 88.000000
-20.384000 37.866000 0.669000 80.000000 74.000000 74.000000
-20.386000 37.869000 0.753000 85.000000 85.000000 85.000000
-20.397000 37.909000 0.699000 81.000000 83.000000 82.000000
-20.392000 37.892000 0.660000 76.000000 74.000000 77.000000
-20.399000 37.917000 0.663000 77.000000 75.000000 76.000000
-20.388000 37.879000 0.730000 89.000000 87.000000 88.000000
-20.378000 37.844000 0.734000 83.000000 85.000000 84.000000
-20.390000 37.884000 0.747000 84.000000 84.000000 84.000000
-20.392000 37.889000 0.737000 84.000000 84.000000 84.000000
-20.397000 37.907000 0.669000 76.000000 74.000000 75.000000
-20.396000 37.906000 0.677000 74.000000 78.000000 77.000000
-20.385000 37.870000 0.695000 81.000000 81.000000 81.000000
-20.391000 37.890000 0.658000 74.000000 72.000000 73.000000
-20.375000 37.835000 0.750000 83.000000 85.000000 84.000000
-20.379000 37.847000 0.742000 83.000000 85.000000 84.000000
-20.400000 37.921000 0.578000 53.000000 51.000000 52.000000
-20.364000 37.797000 0.766000 82.000000 83.000000 85.000000
-20.391000 37.888000 0.754000 91.000000 91.000000 91.000000
-20.402000 37.925000 0.721000 87.000000 89.000000 88.000000
-20.381000 37.853000 0.752000 86.000000 86.000000 86.000000
-20.378000 37.844000 0.725000 83.000000 84.000000 86.000000
-20.401000 37.923000 0.650000 76.000000 72.000000 71.000000
-20.375000 37.836000 0.703000 79.000000 79.000000 79.000000
-20.400000 37.921000 0.610000 62.000000 60.000000 61.000000
-20.401000 37.922000 0.629000 69.000000 70.000000 65.000000
-20.387000 37.875000 0.716000 86.000000 84.000000 85.000000
-20.398000 37.912000 0.619000 65.000000 66.000000 61.000000
-20.387000 37.876000 0.646000 74.000000 73.000000 71.000000
-20.404000 37.930000 0.700000 79.000000 81.000000 78.000000
-20.381000 37.855000 0.704000 82.000000 80.000000 81.000000
-20.393000 37.896000 0.662000 76.000000 74.000000 77.000000
-20.388000 37.880000 0.674000 78.000000 76.000000 77.000000
-20.383000 37.860000 0.714000 89.000000 85.000000 84.000000
-20.395000 37.901000 0.724000 87.000000 87.000000 87.000000
-20.400000 37.920000 0.674000 72.000000 76.000000 75.000000
-20.391000 37.888000 0.687000 81.000000 83.000000 82.000000
-20.381000 37.856000 0.698000 83.000000 81.000000 82.000000
-20.406000 37.936000 0.726000 87.000000 87.000000 87.000000
-20.396000 37.904000 0.752000 99.000000 97.000000 98.000000
-20.366000 37.803000 0.765000 82.000000 83.000000 85.000000
-20.395000 37.905000 0.603000 61.000000 59.000000 62.000000
-20.376000 37.837000 0.742000 83.000000 85.000000 84.000000
-20.404000 37.933000 0.643000 70.000000 69.000000 65.000000
-20.398000 37.911000 0.681000 76.000000 82.000000 80.000000
-20.377000 37.841000 0.693000 79.000000 77.000000 78.000000
-20.390000 37.884000 0.689000 81.000000 83.000000 82.000000
-20.399000 37.918000 0.605000 61.000000 59.000000 60.000000
-20.369000 37.815000 0.769000 84.000000 85.000000 87.000000
-20.386000 37.870000 0.740000 87.000000 87.000000 87.000000
-20.377000 37.839000 0.742000 84.000000 86.000000 85.000000
-20.403000 37.927000 0.696000 79.000000 81.000000 78.000000
-20.367000 37.808000 0.754000 82.000000 83.000000 85.000000
-20.401000 37.922000 0.664000 78.000000 77.000000 75.000000
-20.396000 37.908000 0.602000 61.000000 59.000000 62.000000
-20.375000 37.835000 0.710000 79.000000 81.000000 80.000000
-20.408000 37.943000 0.707000 79.000000 81.000000 78.000000
-20.400000 37.919000 0.664000 77.000000 76.000000 74.000000
-20.378000 37.844000 0.723000 83.000000 84.000000 86.000000
-20.386000 37.870000 0.748000 86.000000 86.000000 86.000000
-20.387000 37.872000 0.755000 85.000000 85.000000 85.000000
-20.371000 37.820000 0.739000 82.000000 84.000000 83.000000
-20.397000 37.906000 0.712000 81.000000 82.000000 84.000000
-20.391000 37.889000 0.614000 65.000000 65.000000 65.000000
-20.369000 37.814000 0.756000 83.000000 84.000000 86.000000
-20.374000 37.829000 0.758000 87.000000 87.000000 87.000000
-20.378000 37.846000 0.709000 78.000000 80.000000 79.000000
-20.401000 37.924000 0.606000 62.000000 60.000000 63.000000
-20.396000 37.905000 0.724000 88.000000 88.000000 88.000000
-20.408000 37.943000 0.738000 86.000000 84.000000 85.000000
-20.382000 37.859000 0.689000 80.000000 79.000000 77.000000
-20.390000 37.886000 0.647000 74.000000 73.000000 71.000000
-20.373000 37.829000 0.730000 82.000000 83.000000 85.000000
-20.404000 37.933000 0.664000 78.000000 77.000000 73.000000
-20.399000 37.913000 0.719000 84.000000 85.000000 87.000000
-20.403000 37.927000 0.692000 78.000000 80.000000 77.000000
-20.399000 37.915000 0.675000 74.000000 78.000000 77.000000
-20.404000 37.932000 0.663000 78.000000 77.000000 73.000000
-20.398000 37.912000 0.650000 78.000000 74.000000 73.000000
-20.392000 37.895000 0.625000 67.000000 68.000000 63.000000
-20.394000 37.896000 0.731000 87.000000 87.000000 87.000000
-20.402000 37.927000 0.617000 65.000000 65.000000 63.000000
-20.405000 37.935000 0.708000 81.000000 83.000000 82.000000
-20.382000 37.858000 0.676000 80.000000 76.000000 75.000000
-20.396000 37.902000 0.740000 88.000000 86.000000 87.000000
-20.380000 37.852000 0.680000 80.000000 76.000000 77.000000
-20.390000 37.888000 0.648000 74.000000 73.000000 71.000000
-20.391000 37.889000 0.668000 79.000000 77.000000 78.000000
-20.393000 37.893000 0.754000 94.000000 92.000000 93.000000
-20.394000 37.899000 0.656000 74.000000 72.000000 73.000000
-20.395000 37.903000 0.658000 77.000000 73.000000 74.000000
-20.400000 37.920000 0.638000 72.000000 71.000000 67.000000
-20.397000 37.908000 0.664000 75.000000 73.000000 74.000000
-20.400000 37.919000 0.618000 65.000000 65.000000 63.000000
-20.369000 37.812000 0.761000 82.000000 83.000000 85.000000
-20.400000 37.922000 0.619000 65.000000 65.000000 63.000000
-20.394000 37.896000 0.731000 87.000000 87.000000 87.000000
-20.383000 37.862000 0.714000 89.000000 85.000000 84.000000
-20.402000 37.922000 0.732000 88.000000 88.000000 88.000000
-20.404000 37.933000 0.663000 78.000000 77.000000 73.000000
-20.388000 37.878000 0.666000 80.000000 76.000000 77.000000
-20.401000 37.924000 0.653000 76.000000 72.000000 71.000000
-20.393000 37.895000 0.683000 87.000000 91.000000 92.000000
-20.384000 37.865000 0.740000 87.000000 87.000000 87.000000
-20.396000 37.908000 0.594000 60.000000 58.000000 61.000000
-20.377000 37.839000 0.762000 82.000000 82.000000 80.000000
-20.385000 37.868000 0.761000 81.000000 83.000000 82.000000
-20.363000 37.792000 0.770000 83.000000 83.000000 85.000000
-20.383000 37.860000 0.712000 84.000000 80.000000 79.000000
-20.396000 37.910000 0.577000 50.000000 49.000000 47.000000
-20.399000 37.914000 0.744000 90.000000 88.000000 91.000000
-20.374000 37.831000 0.758000 87.000000 87.000000 87.000000
-20.388000 37.878000 0.708000 82.000000 80.000000 81.000000
-20.383000 37.861000 0.690000 80.000000 79.000000 77.000000
-20.390000 37.884000 0.696000 80.000000 82.000000 81.000000
-20.396000 37.908000 0.602000 61.000000 59.000000 62.000000
-20.379000 37.847000 0.718000 82.000000 84.000000 83.000000
-20.394000 37.901000 0.618000 65.000000 66.000000 61.000000
-20.388000 37.879000 0.696000 83.000000 83.000000 83.000000
-20.369000 37.816000 0.742000 82.000000 84.000000 83.000000
-20.384000 37.865000 0.652000 77.000000 73.000000 74.000000
-20.393000 37.897000 0.661000 76.000000 74.000000 77.000000
-20.400000 37.919000 0.612000 64.000000 62.000000 63.000000
-20.399000 37.915000 0.720000 87.000000 88.000000 90.000000
-20.404000 37.930000 0.724000 87.000000 87.000000 87.000000
-20.382000 37.856000 0.734000 85.000000 87.000000 86.000000
-20.401000 37.925000 0.615000 64.000000 64.000000 62.000000
-20.382000 37.857000 0.748000 84.000000 86.000000 85.000000
-20.395000 37.903000 0.647000 74.000000 73.000000 71.000000
-20.365000 37.800000 0.764000 82.000000 83.000000 85.000000
-20.378000 37.844000 0.720000 82.000000 83.000000 85.000000
-20.397000 37.910000 0.628000 68.000000 69.000000 64.000000
-20.386000 37.870000 0.738000 87.000000 87.000000 87.000000
-20.391000 37.887000 0.735000 87.000000 87.000000 87.000000
-20.395000 37.905000 0.589000 58.000000 56.000000 59.000000
-20.386000 37.870000 0.717000 87.000000 85.000000 86.000000
-20.402000 37.924000 0.684000 75.000000 80.000000 76.000000
-20.395000 37.902000 0.664000 78.000000 76.000000 77.000000
-20.402000 37.924000 0.688000 74.000000 79.000000 75.000000
-20.387000 38.035000 0.579000 46.000000 44.000000 45.000000
-20.381000 38.084000 0.588000 46.000000 46.000000 46.000000
-20.395000 37.978000 0.587000 52.000000 52.000000 54.000000
-20.387000 38.062000 0.609000 59.000000 59.000000 61.000000
-20.394000 37.965000 0.567000 47.000000 46.000000 42.000000
-20.384000 38.060000 0.582000 43.000000 43.000000 43.000000
-20.373000 38.158000 0.602000 30.000000 31.000000 23.000000
-20.385000 38.116000 0.649000 69.000000 68.000000 64.000000
-20.378000 38.184000 0.670000 117.000000 119.000000 105.000000
-20.380000 38.164000 0.668000 88.000000 88.000000 80.000000
-20.373000 38.152000 0.597000 25.000000 26.000000 20.000000
-20.379000 38.132000 0.620000 56.000000 56.000000 58.000000
-20.383000 38.120000 0.638000 61.000000 63.000000 62.000000
-20.392000 38.016000 0.601000 58.000000 58.000000 58.000000
-20.385000 38.100000 0.636000 62.000000 65.000000 56.000000
-20.389000 38.016000 0.575000 52.000000 51.000000 49.000000
-20.393000 37.982000 0.577000 52.000000 52.000000 52.000000
-20.380000 38.098000 0.594000 43.000000 43.000000 45.000000
-20.375000 38.166000 0.624000 95.000000 97.000000 96.000000
-20.373000 38.162000 0.607000 39.000000 42.000000 35.000000
-20.378000 38.133000 0.617000 56.000000 55.000000 60.000000
-20.384000 38.061000 0.587000 46.000000 46.000000 46.000000
-20.382000 38.072000 0.585000 44.000000 44.000000 44.000000
-20.380000 38.114000 0.609000 52.000000 53.000000 58.000000
-20.390000 38.019000 0.593000 55.000000 56.000000 58.000000
-20.397000 37.945000 0.563000 44.000000 43.000000 38.000000
-20.385000 38.097000 0.632000 61.000000 64.000000 57.000000
-20.388000 38.046000 0.600000 56.000000 56.000000 58.000000
-20.380000 38.111000 0.608000 52.000000 53.000000 58.000000
-20.386000 38.071000 0.614000 59.000000 59.000000 59.000000
-20.385000 38.100000 0.640000 61.000000 64.000000 55.000000
-20.387000 38.043000 0.594000 54.000000 53.000000 58.000000
-20.387000 38.058000 0.606000 59.000000 59.000000 61.000000
-20.377000 38.139000 0.614000 44.000000 45.000000 47.000000
-20.372000 38.163000 0.600000 64.000000 66.000000 55.000000
-20.378000 38.148000 0.634000 24.000000 24.000000 22.000000
-20.375000 38.145000 0.606000 33.000000 33.000000 33.000000
-20.396000 37.955000 0.573000 50.000000 49.000000 47.000000
-20.375000 38.132000 0.592000 41.000000 39.000000 40.000000
-20.377000 38.173000 0.652000 77.000000 78.000000 72.000000
-20.386000 38.063000 0.604000 58.000000 58.000000 60.000000
-20.390000 38.021000 0.591000 53.000000 54.000000 56.000000
-20.385000 38.087000 0.619000 58.000000 58.000000 56.000000
-20.384000 38.080000 0.609000 59.000000 59.000000 61.000000
-20.377000 38.178000 0.657000 50.000000 51.000000 43.000000
-20.390000 38.028000 0.596000 54.000000 55.000000 57.000000
-20.381000 38.176000 0.684000 170.000000 172.000000 151.000000
-20.385000 38.093000 0.631000 61.000000 64.000000 57.000000
-20.382000 38.148000 0.667000 37.000000 36.000000 34.000000
-20.385000 38.050000 0.583000 46.000000 46.000000 46.000000
-20.381000 38.129000 0.632000 62.000000 62.000000 64.000000
-20.378000 38.168000 0.654000 38.000000 39.000000 33.000000
-20.378000 38.135000 0.615000 53.000000 52.000000 57.000000
-20.381000 38.105000 0.612000 52.000000 53.000000 55.000000
-20.378000 38.117000 0.595000 47.000000 47.000000 55.000000
-20.376000 38.123000 0.586000 37.000000 35.000000 38.000000
-20.379000 38.131000 0.624000 55.000000 55.000000 57.000000
-20.376000 38.149000 0.614000 22.000000 24.000000 23.000000
-20.372000 38.158000 0.595000 28.000000 28.000000 18.000000
-20.395000 37.958000 0.567000 45.000000 44.000000 40.000000
-20.392000 38.017000 0.604000 59.000000 59.000000 59.000000
-20.383000 38.073000 0.593000 50.000000 50.000000 52.000000
-20.384000 38.120000 0.653000 71.000000 70.000000 68.000000
-20.384000 38.091000 0.622000 54.000000 56.000000 51.000000
-20.380000 38.179000 0.682000 167.000000 169.000000 148.000000
-20.387000 38.067000 0.615000 58.000000 58.000000 58.000000
-20.373000 38.147000 0.591000 29.000000 30.000000 25.000000
-20.379000 38.115000 0.606000 49.000000 50.000000 55.000000
-20.387000 38.048000 0.594000 54.000000 53.000000 58.000000
-20.395000 37.968000 0.573000 50.000000 49.000000 47.000000
-20.375000 38.137000 0.597000 45.000000 44.000000 49.000000
-20.387000 38.079000 0.629000 63.000000 64.000000 59.000000
-20.372000 38.168000 0.606000 100.000000 103.000000 94.000000
-20.395000 37.975000 0.579000 53.000000 53.000000 55.000000
-20.375000 38.144000 0.600000 34.000000 34.000000 34.000000
-20.381000 38.092000 0.598000 47.000000 48.000000 52.000000
-20.378000 38.109000 0.588000 40.000000 39.000000 44.000000
-20.381000 38.078000 0.582000 40.000000 40.000000 38.000000
-20.381000 38.111000 0.614000 54.000000 55.000000 59.000000
-20.378000 38.137000 0.620000 48.000000 48.000000 50.000000
-20.396000 37.948000 0.564000 44.000000 43.000000 38.000000
-20.386000 38.083000 0.626000 61.000000 61.000000 59.000000
-20.381000 38.175000 0.682000 168.000000 169.000000 151.000000
-20.382000 38.100000 0.610000 51.000000 52.000000 54.000000
-20.379000 38.171000 0.667000 94.000000 94.000000 84.000000
-20.388000 38.020000 0.574000 46.000000 45.000000 43.000000
-20.383000 38.123000 0.644000 65.000000 64.000000 60.000000
-20.386000 38.039000 0.577000 44.000000 44.000000 42.000000
-20.384000 38.069000 0.592000 51.000000 51.000000 53.000000
-20.394000 37.975000 0.573000 49.000000 49.000000 49.000000
-20.384000 38.093000 0.619000 52.000000 54.000000 51.000000
-20.383000 38.074000 0.589000 48.000000 48.000000 48.000000
-20.387000 38.041000 0.587000 52.000000 52.000000 54.000000
-20.387000 38.032000 0.582000 52.000000 50.000000 51.000000
-20.380000 38.151000 0.653000 26.000000 25.000000 21.000000
-20.382000 38.073000 0.586000 44.000000 44.000000 44.000000
-20.391000 37.994000 0.572000 46.000000 45.000000 41.000000
-20.390000 38.040000 0.613000 62.000000 62.000000 62.000000
-20.387000 38.074000 0.622000 61.000000 61.000000 59.000000
-20.386000 38.074000 0.617000 60.000000 60.000000 60.000000
-20.382000 38.160000 0.675000 83.000000 80.000000 73.000000
-20.374000 38.154000 0.602000 22.000000 23.000000 17.000000
-20.374000 38.176000 0.629000 144.000000 146.000000 145.000000
-20.379000 38.124000 0.615000 56.000000 55.000000 60.000000
-20.371000 38.170000 0.600000 106.000000 108.000000 97.000000
-20.374000 38.161000 0.615000 33.000000 35.000000 32.000000
-20.393000 38.006000 0.599000 60.000000 60.000000 60.000000
-20.379000 38.164000 0.656000 33.000000 32.000000 27.000000
-20.385000 38.083000 0.616000 59.000000 59.000000 59.000000
-20.385000 38.127000 0.662000 69.000000 65.000000 66.000000
-20.387000 38.030000 0.574000 46.000000 45.000000 43.000000
-20.372000 38.158000 0.591000 19.000000 20.000000 12.000000
-20.383000 38.143000 0.666000 49.000000 44.000000 48.000000
-20.381000 38.166000 0.671000 105.000000 105.000000 95.000000
-20.394000 37.985000 0.585000 52.000000 52.000000 54.000000
-20.389000 38.011000 0.576000 49.000000 48.000000 46.000000
-20.397000 37.947000 0.566000 46.000000 45.000000 41.000000
-20.375000 38.138000 0.600000 45.000000 45.000000 47.000000
-20.382000 38.094000 0.605000 53.000000 54.000000 56.000000
-20.378000 38.118000 0.597000 47.000000 47.000000 55.000000
-20.390000 38.018000 0.585000 55.000000 55.000000 55.000000
-20.393000 38.003000 0.593000 56.000000 57.000000 59.000000
-20.383000 38.072000 0.587000 48.000000 48.000000 48.000000
-20.388000 38.023000 0.579000 52.000000 50.000000 51.000000
-20.374000 38.169000 0.621000 112.000000 114.000000 111.000000
-20.365000 37.717000 0.661000 53.000000 53.000000 51.000000
-20.362000 37.695000 0.683000 124.000000 123.000000 118.000000
-20.364000 37.712000 0.675000 43.000000 49.000000 47.000000
-20.365000 37.736000 0.677000 75.000000 74.000000 72.000000
-20.364000 37.689000 0.655000 69.000000 71.000000 66.000000
-20.367000 37.718000 0.637000 59.000000 58.000000 54.000000
-20.363000 37.668000 0.652000 156.000000 153.000000 144.000000
-20.362000 37.752000 0.736000 84.000000 82.000000 85.000000
-20.366000 37.731000 0.658000 72.000000 66.000000 66.000000
-20.365000 37.739000 0.677000 76.000000 75.000000 73.000000
-20.363000 37.713000 0.685000 40.000000 46.000000 44.000000
-20.365000 37.732000 0.673000 70.000000 69.000000 67.000000
-20.361000 37.771000 0.755000 85.000000 83.000000 86.000000
-20.363000 37.717000 0.686000 47.000000 53.000000 51.000000
-20.361000 37.750000 0.740000 84.000000 82.000000 85.000000
-20.366000 37.706000 0.643000 35.000000 40.000000 33.000000
-20.364000 37.752000 0.705000 79.000000 78.000000 74.000000
-20.364000 37.722000 0.676000 59.000000 63.000000 62.000000
-20.363000 37.675000 0.661000 62.000000 59.000000 50.000000
-20.363000 37.721000 0.695000 61.000000 66.000000 62.000000
-20.368000 37.697000 0.611000 29.000000 32.000000 21.000000
-20.365000 37.684000 0.640000 162.000000 167.000000 160.000000
-20.364000 37.683000 0.651000 136.000000 139.000000 132.000000
-20.361000 37.758000 0.754000 84.000000 82.000000 85.000000
-20.367000 37.709000 0.623000 46.000000 47.000000 42.000000
-20.364000 37.725000 0.688000 61.000000 65.000000 64.000000
-20.365000 37.730000 0.668000 68.000000 67.000000 65.000000
-20.366000 37.693000 0.636000 91.000000 97.000000 87.000000
-20.362000 37.682000 0.670000 65.000000 62.000000 55.000000
-20.367000 37.728000 0.646000 65.000000 61.000000 60.000000
-20.367000 37.712000 0.625000 49.000000 50.000000 45.000000
-20.365000 37.719000 0.662000 62.000000 62.000000 60.000000
-20.365000 37.726000 0.664000 66.000000 65.000000 63.000000
