-15.777000 39.633000 2.726000 190.000000 190.000000 182.000000
-15.786000 39.607000 2.573000 188.000000 189.000000 183.000000
-15.783000 39.565000 2.625000 192.000000 191.000000 187.000000
-15.781000 39.740000 2.664000 190.000000 189.000000 184.000000
-15.788000 39.457000 2.521000 178.000000 179.000000 173.000000
-15.778000 39.686000 2.713000 189.000000 190.000000 184.000000
-15.786000 39.524000 2.567000 184.000000 186.000000 181.000000
-15.785000 39.610000 2.587000 190.000000 189.000000 184.000000
-15.784000 39.584000 2.604000 191.000000 192.000000 187.000000
-15.774000 39.657000 2.775000 191.000000 192.000000 187.000000
-15.783000 39.756000 2.645000 189.000000 190.000000 184.000000
-15.787000 39.541000 2.547000 181.000000 183.000000 178.000000
-15.781000 39.662000 2.660000 190.000000 193.000000 186.000000
-15.788000 39.474000 2.529000 180.000000 179.000000 174.000000
-15.785000 39.505000 2.576000 184.000000 186.000000 181.000000
-15.777000 39.584000 2.713000 192.000000 193.000000 188.000000
-15.777000 39.568000 2.722000 191.000000 192.000000 187.000000
-15.781000 39.737000 2.665000 190.000000 189.000000 184.000000
-15.784000 39.501000 2.604000 186.000000 187.000000 181.000000
-15.783000 39.559000 2.617000 188.000000 187.000000 183.000000
-15.787000 39.513000 2.542000 181.000000 184.000000 177.000000
-15.782000 39.692000 2.645000 190.000000 191.000000 185.000000
-15.781000 39.740000 2.662000 190.000000 189.000000 184.000000
-15.785000 39.598000 2.584000 189.000000 188.000000 183.000000
-15.785000 39.728000 2.605000 188.000000 189.000000 183.000000
-15.784000 39.668000 2.605000 188.000000 189.000000 183.000000
-15.785000 39.701000 2.597000 186.000000 188.000000 183.000000
-15.779000 39.642000 2.693000 191.000000 190.000000 185.000000
-15.780000 39.678000 2.683000 190.000000 191.000000 185.000000
-15.781000 39.576000 2.660000 193.000000 194.000000 188.000000
-15.783000 39.532000 2.625000 189.000000 188.000000 184.000000
-15.777000 39.571000 2.713000 192.000000 193.000000 188.000000
-15.780000 39.598000 2.680000 192.000000 193.000000 187.000000
-15.785000 39.610000 2.585000 190.000000 189.000000 184.000000
-15.780000 39.656000 2.671000 191.000000 192.000000 186.000000
-15.778000 39.551000 2.695000 192.000000 193.000000 187.000000
-15.780000 39.567000 2.663000 193.000000 194.000000 188.000000
-15.783000 39.713000 2.630000 188.000000 189.000000 183.000000
-15.780000 39.611000 2.668000 191.000000 192.000000 186.000000
-15.776000 39.622000 2.733000 192.000000 192.000000 184.000000
-15.779000 39.578000 2.679000 192.000000 193.000000 187.000000
-15.781000 39.594000 2.650000 193.000000 194.000000 188.000000
-15.788000 39.486000 2.523000 180.000000 179.000000 174.000000
-15.783000 39.716000 2.629000 188.000000 189.000000 183.000000
-15.780000 39.591000 2.679000 191.000000 192.000000 186.000000
-15.786000 39.638000 2.578000 187.000000 188.000000 183.000000
-15.788000 39.503000 2.536000 180.000000 183.000000 176.000000
-15.785000 39.582000 2.591000 187.000000 186.000000 182.000000
-15.781000 39.735000 2.672000 190.000000 189.000000 184.000000
-15.782000 39.510000 2.625000 187.000000 188.000000 183.000000
-15.781000 39.726000 2.662000 189.000000 190.000000 184.000000
-15.778000 39.620000 2.710000 191.000000 192.000000 186.000000
-15.787000 39.492000 2.555000 181.000000 183.000000 178.000000
-15.782000 39.597000 2.648000 192.000000 193.000000 187.000000
-15.773000 39.616000 2.784000 190.000000 191.000000 186.000000
-15.779000 39.652000 2.697000 191.000000 190.000000 185.000000
-15.782000 39.621000 2.636000 190.000000 191.000000 185.000000
-15.786000 39.688000 2.588000 185.000000 187.000000 182.000000
-15.781000 39.545000 2.644000 190.000000 189.000000 187.000000
-15.775000 39.608000 2.758000 191.000000 192.000000 186.000000
-15.781000 39.660000 2.658000 190.000000 193.000000 186.000000
-15.783000 39.564000 2.616000 189.000000 188.000000 184.000000
-15.780000 39.618000 2.674000 190.000000 191.000000 185.000000
-15.782000 39.691000 2.653000 189.000000 190.000000 184.000000
-15.778000 39.679000 2.714000 190.000000 191.000000 185.000000
-15.785000 39.639000 2.601000 188.000000 189.000000 184.000000
-15.787000 39.494000 2.549000 181.000000 183.000000 178.000000
-15.783000 39.665000 2.632000 189.000000 190.000000 184.000000
-15.782000 39.698000 2.656000 189.000000 190.000000 184.000000
-15.781000 39.654000 2.664000 191.000000 192.000000 186.000000
-15.783000 39.693000 2.627000 189.000000 190.000000 184.000000
-15.783000 39.681000 2.626000 188.000000 189.000000 183.000000
-15.779000 39.689000 2.695000 190.000000 191.000000 185.000000
-15.779000 39.610000 2.692000 191.000000 192.000000 186.000000
-15.782000 39.526000 2.639000 190.000000 189.000000 187.000000
-15.783000 39.524000 2.624000 190.000000 189.000000 185.000000
-15.783000 39.657000 2.631000 189.000000 190.000000 184.000000
-15.786000 39.663000 2.580000 185.000000 187.000000 182.000000
-15.784000 39.579000 2.599000 187.000000 186.000000 182.000000
-15.781000 39.632000 2.667000 191.000000 192.000000 186.000000
-15.784000 39.570000 2.596000 186.000000 185.000000 181.000000
-15.782000 39.712000 2.648000 189.000000 190.000000 184.000000
-15.781000 39.655000 2.662000 191.000000 192.000000 186.000000
-15.779000 39.605000 2.683000 192.000000 193.000000 187.000000
-15.779000 39.697000 2.705000 190.000000 191.000000 185.000000
-15.778000 39.660000 2.712000 191.000000 191.000000 183.000000
-15.783000 39.551000 2.616000 189.000000 188.000000 184.000000
-15.787000 39.569000 2.547000 184.000000 185.000000 179.000000
-15.772000 39.621000 2.812000 192.000000 191.000000 187.000000
-15.779000 39.606000 2.694000 191.000000 192.000000 186.000000
-15.777000 39.568000 2.724000 190.000000 191.000000 186.000000
-15.778000 39.600000 2.706000 191.000000 192.000000 186.000000
-15.780000 39.638000 2.680000 191.000000 192.000000 186.000000
-15.784000 39.604000 2.601000 190.000000 189.000000 185.000000
-15.788000 39.485000 2.525000 180.000000 179.000000 174.000000
-15.780000 39.533000 2.673000 193.000000 194.000000 189.000000
-15.784000 39.514000 2.592000 185.000000 186.000000 180.000000
-15.782000 39.733000 2.646000 188.000000 189.000000 183.000000
-15.785000 39.657000 2.590000 186.000000 188.000000 183.000000
-15.785000 39.714000 2.599000 188.000000 187.000000 182.000000
-15.787000 39.571000 2.560000 184.000000 185.000000 177.000000
-15.777000 39.674000 2.724000 190.000000 191.000000 186.000000
-15.785000 39.632000 2.595000 188.000000 189.000000 184.000000
-15.785000 39.569000 2.594000 185.000000 184.000000 180.000000
-15.783000 39.712000 2.632000 189.000000 190.000000 184.000000
-15.789000 39.525000 2.526000 180.000000 181.000000 175.000000
-15.774000 39.633000 2.775000 191.000000 192.000000 187.000000
-15.775000 39.634000 2.766000 190.000000 191.000000 186.000000
-15.784000 39.701000 2.621000 188.000000 189.000000 183.000000
-15.779000 39.561000 2.693000 192.000000 193.000000 187.000000
-15.777000 39.611000 2.715000 191.000000 192.000000 186.000000
-15.784000 39.511000 2.595000 185.000000 186.000000 180.000000
-15.783000 39.541000 2.619000 189.000000 188.000000 184.000000
-15.781000 39.554000 2.645000 192.000000 191.000000 189.000000
-15.786000 39.506000 2.566000 184.000000 186.000000 181.000000
-15.784000 39.740000 2.622000 188.000000 189.000000 183.000000
-15.787000 39.549000 2.551000 182.000000 183.000000 178.000000
-15.789000 39.487000 2.520000 180.000000 180.000000 172.000000
-15.780000 39.641000 2.674000 191.000000 192.000000 186.000000
-15.772000 39.615000 2.807000 190.000000 189.000000 185.000000
-15.788000 39.566000 2.545000 183.000000 184.000000 178.000000
-15.778000 39.657000 2.713000 191.000000 191.000000 183.000000
-15.779000 39.692000 2.696000 190.000000 191.000000 185.000000
-15.775000 39.613000 2.749000 191.000000 192.000000 184.000000
-15.778000 39.651000 2.709000 191.000000 191.000000 183.000000
-15.774000 39.614000 2.766000 190.000000 191.000000 186.000000
-15.783000 39.650000 2.623000 189.000000 190.000000 184.000000
-15.779000 39.697000 2.694000 190.000000 191.000000 185.000000
-15.778000 39.617000 2.707000 191.000000 192.000000 184.000000
-15.783000 39.715000 2.635000 189.000000 190.000000 184.000000
-15.773000 39.628000 2.799000 190.000000 191.000000 186.000000
-15.780000 39.723000 2.676000 188.000000 189.000000 183.000000
-15.787000 39.535000 2.556000 183.000000 185.000000 180.000000
-15.784000 39.509000 2.601000 186.000000 187.000000 181.000000
-15.774000 39.629000 2.768000 190.000000 191.000000 186.000000
-15.783000 39.524000 2.612000 188.000000 187.000000 183.000000
-15.783000 39.620000 2.617000 190.000000 191.000000 185.000000
-15.781000 39.583000 2.651000 192.000000 193.000000 187.000000
-15.783000 39.620000 2.633000 190.000000 191.000000 185.000000
-15.786000 39.479000 2.566000 184.000000 183.000000 179.000000
-15.787000 39.526000 2.550000 182.000000 184.000000 179.000000
-15.780000 39.686000 2.684000 190.000000 191.000000 185.000000
-15.781000 39.613000 2.657000 191.000000 192.000000 186.000000
-15.783000 39.530000 2.622000 189.000000 188.000000 184.000000
-15.784000 39.767000 2.625000 188.000000 189.000000 183.000000
-15.786000 39.516000 2.562000 181.000000 186.000000 180.000000
-15.778000 39.662000 2.710000 191.000000 191.000000 183.000000
-15.785000 39.697000 2.602000 187.000000 188.000000 182.000000
-15.783000 39.740000 2.628000 188.000000 189.000000 183.000000
-15.782000 39.709000 2.649000 189.000000 190.000000 184.000000
-15.783000 39.579000 2.627000 194.000000 190.000000 187.000000
-15.789000 39.494000 2.516000 180.000000 180.000000 172.000000
-15.781000 39.728000 2.672000 189.000000 190.000000 184.000000
-15.783000 39.750000 2.641000 189.000000 190.000000 184.000000
-15.784000 39.685000 2.610000 187.000000 188.000000 182.000000
-15.786000 39.573000 2.575000 185.000000 186.000000 180.000000
-15.785000 39.551000 2.586000 185.000000 186.000000 180.000000
-15.779000 39.553000 2.689000 192.000000 193.000000 187.000000
-15.785000 39.522000 2.585000 187.000000 186.000000 181.000000
-15.788000 39.553000 2.536000 182.000000 183.000000 177.000000
-15.775000 39.666000 2.762000 191.000000 192.000000 187.000000
-15.780000 39.549000 2.660000 193.000000 194.000000 188.000000
-15.781000 39.593000 2.657000 192.000000 193.000000 187.000000
-15.781000 39.665000 2.655000 190.000000 193.000000 186.000000
-15.779000 39.575000 2.690000 192.000000 193.000000 187.000000
-15.789000 39.518000 2.521000 180.000000 181.000000 175.000000
-15.784000 39.632000 2.607000 189.000000 190.000000 184.000000
-15.786000 39.598000 2.572000 184.000000 185.000000 179.000000
-15.786000 39.651000 2.577000 186.000000 187.000000 182.000000
-15.785000 39.562000 2.580000 185.000000 186.000000 180.000000
-15.782000 39.633000 2.644000 190.000000 191.000000 185.000000
-15.789000 39.471000 2.511000 180.000000 180.000000 172.000000
-15.775000 39.622000 2.756000 190.000000 191.000000 186.000000
-15.788000 39.579000 2.544000 184.000000 185.000000 179.000000
-15.784000 39.664000 2.612000 189.000000 190.000000 184.000000
-15.789000 39.466000 2.517000 178.000000 179.000000 173.000000
-15.781000 39.721000 2.661000 189.000000 190.000000 184.000000
-15.785000 39.575000 2.590000 187.000000 186.000000 181.000000
-15.781000 39.610000 2.665000 191.000000 192.000000 186.000000
-15.780000 39.543000 2.664000 192.000000 193.000000 187.000000
-15.776000 39.564000 2.732000 191.000000 192.000000 187.000000
-15.788000 39.511000 2.527000 180.000000 181.000000 175.000000
-15.782000 39.628000 2.648000 190.000000 191.000000 185.000000
-15.786000 39.625000 2.571000 187.000000 186.000000 182.000000
-15.777000 39.626000 2.727000 191.000000 191.000000 183.000000
-15.782000 39.556000 2.643000 192.000000 191.000000 189.000000
-15.777000 39.651000 2.734000 190.000000 191.000000 185.000000
-15.781000 39.547000 2.647000 193.000000 192.000000 190.000000
-15.777000 39.679000 2.723000 189.000000 190.000000 184.000000
-15.787000 39.469000 2.548000 183.000000 182.000000 177.000000
-15.786000 39.494000 2.560000 182.000000 183.000000 178.000000
-15.781000 39.550000 2.657000 193.000000 194.000000 188.000000
-15.785000 39.655000 2.591000 186.000000 188.000000 183.000000
-15.783000 39.556000 2.619000 189.000000 188.000000 184.000000
-15.785000 39.601000 2.584000 189.000000 188.000000 183.000000
-15.788000 39.568000 2.542000 184.000000 185.000000 179.000000
-15.784000 39.668000 2.610000 188.000000 189.000000 183.000000
-15.784000 39.649000 2.604000 188.000000 189.000000 183.000000
-15.782000 39.720000 2.653000 189.000000 190.000000 184.000000
-15.787000 39.588000 2.563000 184.000000 185.000000 177.000000
-15.777000 39.576000 2.726000 189.000000 190.000000 185.000000
-15.778000 39.647000 2.709000 191.000000 191.000000 183.000000
-15.786000 39.592000 2.575000 185.000000 186.000000 180.000000
-15.785000 39.531000 2.582000 186.000000 187.000000 181.000000
-15.780000 39.628000 2.676000 191.000000 192.000000 186.000000
-15.783000 39.690000 2.624000 188.000000 189.000000 183.000000
-15.780000 39.707000 2.676000 190.000000 191.000000 185.000000
-15.786000 39.665000 2.577000 185.000000 187.000000 182.000000
-15.788000 39.476000 2.529000 180.000000 179.000000 174.000000
-15.778000 39.568000 2.705000 192.000000 193.000000 188.000000
-15.787000 39.553000 2.553000 183.000000 184.000000 179.000000
-15.777000 39.577000 2.715000 192.000000 193.000000 188.000000
-15.783000 39.757000 2.638000 189.000000 190.000000 184.000000
-15.786000 39.626000 2.584000 188.000000 187.000000 183.000000
-15.784000 39.578000 2.609000 191.000000 190.000000 186.000000
-15.787000 39.551000 2.549000 183.000000 184.000000 179.000000
-15.775000 39.602000 2.758000 191.000000 192.000000 186.000000
-15.784000 39.708000 2.623000 189.000000 190.000000 184.000000
-15.782000 39.606000 2.648000 190.000000 193.000000 186.000000
-15.781000 39.601000 2.662000 191.000000 192.000000 186.000000
-15.783000 39.587000 2.620000 192.000000 191.000000 187.000000
-15.782000 39.733000 2.652000 190.000000 189.000000 184.000000
-15.788000 39.508000 2.527000 180.000000 181.000000 175.000000
-15.785000 39.529000 2.582000 186.000000 187.000000 181.000000
-15.780000 39.620000 2.678000 191.000000 192.000000 186.000000
-15.776000 39.664000 2.746000 190.000000 191.000000 186.000000
-15.785000 39.705000 2.599000 186.000000 188.000000 183.000000
-15.786000 39.595000 2.580000 185.000000 186.000000 180.000000
-15.784000 39.658000 2.613000 188.000000 189.000000 183.000000
-15.780000 39.713000 2.690000 188.000000 189.000000 183.000000
-15.789000 39.488000 2.520000 180.000000 180.000000 172.000000
-15.787000 39.601000 2.557000 185.000000 186.000000 178.000000
-15.780000 39.723000 2.684000 188.000000 189.000000 183.000000
-15.782000 39.741000 2.651000 190.000000 189.000000 184.000000
-15.781000 39.739000 2.667000 190.000000 189.000000 184.000000
-15.783000 39.603000 2.628000 192.000000 191.000000 187.000000
-15.781000 39.576000 2.662000 192.000000 193.000000 187.000000
-15.784000 39.638000 2.617000 189.000000 190.000000 184.000000
-15.789000 39.507000 2.518000 180.000000 181.000000 173.000000
-15.778000 39.682000 2.711000 190.000000 191.000000 185.000000
-15.785000 39.626000 2.587000 189.000000 188.000000 184.000000
-15.786000 39.605000 2.579000 189.000000 190.000000 184.000000
-15.784000 39.557000 2.600000 186.000000 187.000000 181.000000
-15.786000 39.514000 2.565000 182.000000 187.000000 181.000000
-15.788000 39.529000 2.527000 181.000000 182.000000 176.000000
-15.786000 39.508000 2.574000 184.000000 186.000000 181.000000
-15.779000 39.586000 2.687000 192.000000 193.000000 187.000000
-15.777000 39.680000 2.729000 189.000000 190.000000 185.000000
-15.785000 39.501000 2.582000 184.000000 187.000000 180.000000
-15.773000 39.636000 2.797000 190.000000 191.000000 186.000000
-15.782000 39.525000 2.628000 190.000000 189.000000 185.000000
-15.775000 39.605000 2.760000 191.000000 192.000000 186.000000
-15.787000 39.518000 2.555000 181.000000 183.000000 178.000000
-15.784000 39.623000 2.608000 189.000000 190.000000 184.000000
-15.778000 39.638000 2.702000 189.000000 190.000000 184.000000
-15.776000 39.577000 2.744000 193.000000 193.000000 185.000000
-15.780000 39.564000 2.668000 192.000000 193.000000 187.000000
-15.771000 39.621000 2.815000 192.000000 191.000000 187.000000
-15.787000 39.562000 2.549000 183.000000 184.000000 178.000000
-15.784000 39.761000 2.624000 187.000000 188.000000 182.000000
-15.787000 39.465000 2.541000 183.000000 182.000000 177.000000
-15.785000 39.729000 2.604000 188.000000 189.000000 183.000000
-15.786000 39.575000 2.580000 184.000000 185.000000 179.000000
-15.776000 39.571000 2.732000 191.000000 192.000000 187.000000
-15.775000 39.581000 2.755000 191.000000 192.000000 184.000000
-15.773000 39.603000 2.787000 191.000000 192.000000 187.000000
-15.789000 39.478000 2.513000 179.000000 179.000000 171.000000
-15.774000 39.590000 2.763000 192.000000 193.000000 188.000000
-15.777000 39.661000 2.732000 190.000000 191.000000 185.000000
-15.786000 39.640000 2.571000 186.000000 187.000000 182.000000
-15.785000 39.719000 2.599000 188.000000 187.000000 182.000000
-15.784000 39.669000 2.616000 188.000000 189.000000 183.000000
-15.785000 39.712000 2.608000 187.000000 188.000000 182.000000
-15.788000 39.491000 2.523000 181.000000 180.000000 175.000000
-15.785000 39.661000 2.590000 186.000000 188.000000 183.000000
-15.783000 39.506000 2.617000 187.000000 188.000000 182.000000
-15.781000 39.600000 2.661000 191.000000 192.000000 186.000000
-15.781000 39.674000 2.667000 190.000000 191.000000 185.000000
-15.786000 39.642000 2.585000 187.000000 188.000000 183.000000
-15.789000 39.485000 2.520000 180.000000 180.000000 172.000000
-15.783000 39.595000 2.624000 194.000000 190.000000 187.000000
-15.785000 39.517000 2.577000 184.000000 186.000000 181.000000
-15.785000 39.490000 2.583000 185.000000 186.000000 180.000000
-15.776000 39.576000 2.738000 192.000000 191.000000 186.000000
-15.781000 39.720000 2.660000 189.000000 190.000000 184.000000
-15.784000 39.492000 2.591000 185.000000 186.000000 180.000000
-15.777000 39.595000 2.722000 190.000000 191.000000 186.000000
-15.778000 39.679000 2.705000 190.000000 191.000000 185.000000
-15.779000 39.545000 2.680000 193.000000 194.000000 188.000000
-15.781000 39.695000 2.665000 190.000000 191.000000 185.000000
-15.781000 39.574000 2.660000 193.000000 194.000000 188.000000
-15.776000 39.658000 2.742000 191.000000 192.000000 186.000000
-15.779000 39.684000 2.702000 190.000000 191.000000 185.000000
-15.787000 39.536000 2.552000 181.000000 183.000000 178.000000
-15.788000 39.522000 2.528000 181.000000 182.000000 176.000000
-15.779000 39.678000 2.703000 190.000000 191.000000 185.000000
-15.778000 39.647000 2.716000 191.000000 191.000000 183.000000
-15.781000 39.551000 2.646000 193.000000 192.000000 190.000000
-15.777000 39.605000 2.730000 191.000000 190.000000 185.000000
-15.787000 39.506000 2.543000 181.000000 184.000000 177.000000
-15.778000 39.604000 2.705000 191.000000 192.000000 186.000000
-15.779000 39.629000 2.699000 189.000000 190.000000 184.000000
-15.778000 39.702000 2.712000 189.000000 190.000000 184.000000
-15.785000 39.496000 2.578000 185.000000 186.000000 180.000000
-15.784000 39.615000 2.604000 188.000000 190.000000 185.000000
-15.778000 39.569000 2.701000 192.000000 193.000000 187.000000
-15.785000 39.663000 2.595000 186.000000 188.000000 183.000000
-15.786000 39.578000 2.573000 184.000000 185.000000 179.000000
-15.779000 39.676000 2.693000 190.000000 191.000000 185.000000
-15.787000 39.513000 2.558000 181.000000 186.000000 180.000000
-15.786000 39.626000 2.584000 188.000000 187.000000 183.000000
-15.783000 39.715000 2.628000 188.000000 189.000000 183.000000
-15.785000 39.532000 2.582000 186.000000 187.000000 181.000000
-15.781000 39.543000 2.658000 193.000000 194.000000 188.000000
-15.780000 39.639000 2.682000 191.000000 192.000000 186.000000
-15.783000 39.590000 2.616000 192.000000 191.000000 187.000000
-15.784000 39.572000 2.602000 187.000000 186.000000 182.000000
-15.775000 39.590000 2.751000 192.000000 193.000000 185.000000
-15.782000 39.620000 2.637000 190.000000 191.000000 185.000000
-15.790000 39.456000 2.502000 177.000000 177.000000 167.000000
-15.785000 39.669000 2.603000 188.000000 189.000000 183.000000
-15.781000 39.638000 2.662000 191.000000 192.000000 186.000000
-15.782000 39.612000 2.648000 190.000000 193.000000 186.000000
-15.778000 39.676000 2.705000 190.000000 191.000000 185.000000
-15.782000 39.690000 2.642000 190.000000 191.000000 185.000000
-15.783000 39.756000 2.636000 189.000000 190.000000 184.000000
-15.778000 39.558000 2.700000 192.000000 193.000000 187.000000
-15.788000 39.460000 2.527000 179.000000 180.000000 174.000000
-15.786000 39.636000 2.575000 186.000000 187.000000 182.000000
-15.782000 39.533000 2.636000 189.000000 188.000000 184.000000
-15.786000 39.640000 2.584000 187.000000 188.000000 183.000000
-15.785000 39.535000 2.583000 186.000000 187.000000 181.000000
-15.782000 39.715000 2.656000 189.000000 190.000000 184.000000
-15.774000 39.611000 2.775000 191.000000 192.000000 187.000000
-15.788000 39.514000 2.528000 180.000000 181.000000 175.000000
-15.785000 39.676000 2.592000 185.000000 187.000000 182.000000
-15.790000 39.447000 2.502000 178.000000 178.000000 168.000000
-15.775000 39.614000 2.762000 191.000000 192.000000 187.000000
-15.788000 39.534000 2.532000 180.000000 183.000000 176.000000
-15.781000 39.660000 2.658000 190.000000 193.000000 186.000000
-15.775000 39.612000 2.755000 191.000000 192.000000 184.000000
-15.785000 39.489000 2.573000 184.000000 185.000000 180.000000
-15.784000 39.504000 2.602000 186.000000 187.000000 181.000000
-15.781000 39.650000 2.652000 190.000000 193.000000 186.000000
-15.778000 39.574000 2.698000 192.000000 193.000000 187.000000
-15.772000 39.612000 2.808000 191.000000 190.000000 186.000000
-15.783000 39.647000 2.625000 189.000000 190.000000 184.000000
-15.786000 39.672000 2.585000 185.000000 187.000000 182.000000
-15.779000 39.709000 2.696000 188.000000 189.000000 183.000000
-15.784000 39.564000 2.604000 186.000000 185.000000 180.000000
-15.788000 39.532000 2.529000 181.000000 182.000000 176.000000
-15.783000 39.619000 2.632000 190.000000 191.000000 185.000000
-15.778000 39.681000 2.705000 190.000000 191.000000 185.000000
-15.780000 39.646000 2.670000 191.000000 192.000000 186.000000
-15.787000 39.522000 2.548000 182.000000 184.000000 181.000000
-15.784000 39.550000 2.606000 187.000000 186.000000 181.000000
-15.775000 39.585000 2.756000 191.000000 192.000000 184.000000
-15.774000 39.586000 2.767000 191.000000 192.000000 187.000000
-15.790000 39.447000 2.497000 177.000000 177.000000 167.000000
-15.783000 39.649000 2.626000 189.000000 190.000000 184.000000
-15.782000 39.625000 2.650000 190.000000 191.000000 185.000000
-15.783000 39.561000 2.616000 189.000000 188.000000 184.000000
-15.779000 39.628000 2.688000 191.000000 190.000000 185.000000
-15.773000 39.599000 2.795000 192.000000 191.000000 187.000000
-15.785000 39.586000 2.583000 187.000000 186.000000 181.000000
-15.773000 39.601000 2.785000 191.000000 192.000000 187.000000
-15.775000 39.613000 2.764000 191.000000 192.000000 187.000000
-15.788000 39.506000 2.534000 181.000000 184.000000 177.000000
-15.782000 39.663000 2.638000 190.000000 191.000000 185.000000
-15.784000 39.520000 2.605000 187.000000 188.000000 182.000000
-15.778000 39.650000 2.705000 191.000000 191.000000 183.000000
-15.789000 39.490000 2.519000 181.000000 181.000000 173.000000
-15.781000 39.629000 2.658000 190.000000 193.000000 186.000000
-15.782000 39.694000 2.644000 190.000000 191.000000 185.000000
-15.778000 39.653000 2.707000 191.000000 191.000000 183.000000
-15.779000 39.633000 2.691000 191.000000 190.000000 185.000000
-15.785000 39.660000 2.590000 186.000000 188.000000 183.000000
-15.783000 39.520000 2.608000 187.000000 188.000000 182.000000
-15.780000 39.640000 2.684000 191.000000 192.000000 186.000000
-15.781000 39.554000 2.655000 193.000000 194.000000 188.000000
-15.784000 39.539000 2.608000 188.000000 187.000000 182.000000
-15.781000 39.722000 2.671000 189.000000 190.000000 184.000000
-15.788000 39.543000 2.543000 181.000000 183.000000 178.000000
-15.782000 39.667000 2.644000 191.000000 192.000000 186.000000
-15.780000 39.574000 2.667000 192.000000 193.000000 187.000000
-15.787000 39.473000 2.549000 182.000000 183.000000 178.000000
-15.773000 39.640000 2.792000 190.000000 191.000000 186.000000
-15.786000 39.510000 2.569000 184.000000 186.000000 181.000000
-15.782000 39.569000 2.641000 191.000000 190.000000 188.000000
-15.786000 39.658000 2.577000 185.000000 187.000000 182.000000
-15.775000 39.630000 2.759000 190.000000 191.000000 186.000000
-15.782000 39.629000 2.648000 190.000000 191.000000 185.000000
-15.782000 39.728000 2.649000 189.000000 190.000000 184.000000
-15.780000 39.655000 2.673000 191.000000 192.000000 186.000000
-15.783000 39.693000 2.625000 188.000000 189.000000 183.000000
-15.788000 39.488000 2.523000 180.000000 179.000000 174.000000
-15.775000 39.596000 2.755000 192.000000 193.000000 185.000000
-15.775000 39.645000 2.755000 190.000000 191.000000 186.000000
-15.777000 39.677000 2.725000 190.000000 191.000000 186.000000
-15.774000 39.639000 2.770000 190.000000 191.000000 186.000000
-15.779000 39.706000 2.692000 189.000000 190.000000 184.000000
-15.779000 39.696000 2.700000 189.000000 190.000000 184.000000
-15.784000 39.729000 2.623000 188.000000 189.000000 183.000000
-15.784000 39.692000 2.620000 188.000000 189.000000 183.000000
-15.779000 39.615000 2.689000 192.000000 193.000000 187.000000
-15.788000 39.509000 2.530000 181.000000 182.000000 176.000000
-15.777000 39.679000 2.722000 189.000000 190.000000 184.000000
-15.785000 39.685000 2.605000 187.000000 188.000000 182.000000
-15.780000 39.649000 2.671000 191.000000 192.000000 186.000000
-15.779000 39.621000 2.686000 191.000000 192.000000 186.000000
-15.788000 39.513000 2.534000 180.000000 183.000000 176.000000
-15.788000 39.572000 2.543000 184.000000 185.000000 179.000000
-15.783000 39.749000 2.635000 188.000000 189.000000 183.000000
-15.783000 39.599000 2.617000 192.000000 191.000000 187.000000
-15.782000 39.718000 2.647000 189.000000 190.000000 184.000000
-15.783000 39.648000 2.631000 190.000000 191.000000 185.000000
-15.785000 39.493000 2.586000 185.000000 186.000000 180.000000
-15.781000 39.618000 2.662000 190.000000 193.000000 186.000000
-15.779000 39.644000 2.700000 190.000000 191.000000 185.000000
-15.787000 39.589000 2.562000 184.000000 185.000000 177.000000
-15.789000 39.450000 2.513000 177.000000 178.000000 172.000000
-15.783000 39.535000 2.613000 188.000000 187.000000 183.000000
-15.785000 39.638000 2.597000 188.000000 189.000000 184.000000
-15.781000 39.521000 2.650000 190.000000 191.000000 186.000000
-15.780000 39.769000 2.680000 190.000000 189.000000 184.000000
-15.773000 39.666000 2.800000 189.000000 190.000000 185.000000
-15.780000 39.730000 2.690000 189.000000 190.000000 184.000000
-15.766000 39.712000 2.913000 186.000000 185.000000 181.000000
-15.769000 39.781000 2.867000 186.000000 185.000000 181.000000
-15.770000 39.715000 2.839000 188.000000 188.000000 180.000000
-15.769000 39.734000 2.866000 188.000000 187.000000 183.000000
-15.777000 39.702000 2.732000 190.000000 191.000000 186.000000
-15.766000 39.705000 2.908000 186.000000 185.000000 181.000000
-15.777000 39.708000 2.731000 190.000000 191.000000 186.000000
-15.770000 39.713000 2.848000 189.000000 188.000000 183.000000
-15.780000 39.750000 2.683000 191.000000 190.000000 185.000000
-15.768000 39.727000 2.867000 187.000000 186.000000 182.000000
-15.771000 39.686000 2.824000 189.000000 188.000000 183.000000
-15.777000 39.751000 2.731000 190.000000 189.000000 184.000000
-15.768000 39.748000 2.878000 186.000000 185.000000 181.000000
-15.780000 39.760000 2.685000 190.000000 189.000000 184.000000
-15.777000 39.713000 2.729000 190.000000 191.000000 186.000000
-15.778000 39.729000 2.712000 189.000000 190.000000 184.000000
-15.771000 39.757000 2.827000 187.000000 186.000000 181.000000
-15.773000 39.692000 2.787000 189.000000 190.000000 185.000000
-15.776000 39.715000 2.745000 189.000000 190.000000 185.000000
-15.769000 39.685000 2.854000 188.000000 189.000000 184.000000
-15.775000 39.713000 2.762000 189.000000 190.000000 185.000000
-15.770000 39.741000 2.851000 187.000000 186.000000 182.000000
-15.767000 39.693000 2.896000 186.000000 187.000000 182.000000
-15.773000 39.774000 2.804000 187.000000 188.000000 183.000000
-15.770000 39.717000 2.844000 188.000000 187.000000 182.000000
-15.781000 39.747000 2.662000 190.000000 189.000000 184.000000
-15.774000 39.744000 2.776000 188.000000 189.000000 184.000000
-15.777000 39.706000 2.733000 190.000000 191.000000 186.000000
-15.772000 39.635000 2.813000 190.000000 191.000000 186.000000
-15.770000 39.725000 2.846000 187.000000 186.000000 182.000000
-15.772000 39.646000 2.807000 190.000000 191.000000 186.000000
-15.765000 39.721000 2.918000 187.000000 186.000000 182.000000
-15.775000 39.711000 2.763000 189.000000 190.000000 185.000000
-15.761000 39.793000 2.983000 181.000000 181.000000 179.000000
-15.773000 39.698000 2.792000 190.000000 191.000000 186.000000
-15.767000 39.761000 2.895000 185.000000 186.000000 181.000000
-15.774000 39.725000 2.776000 188.000000 189.000000 184.000000
-15.776000 39.739000 2.752000 190.000000 191.000000 186.000000
-15.777000 39.779000 2.734000 191.000000 188.000000 181.000000
-15.779000 39.745000 2.707000 190.000000 191.000000 185.000000
-15.775000 39.698000 2.758000 191.000000 192.000000 187.000000
-15.767000 39.763000 2.892000 185.000000 186.000000 181.000000
-15.767000 39.768000 2.888000 184.000000 186.000000 183.000000
-15.776000 39.752000 2.756000 188.000000 189.000000 184.000000
-15.766000 39.788000 2.905000 185.000000 184.000000 180.000000
-15.772000 39.642000 2.806000 190.000000 191.000000 186.000000
-15.771000 39.661000 2.831000 186.000000 187.000000 182.000000
-15.780000 39.775000 2.687000 190.000000 189.000000 184.000000
-15.768000 39.742000 2.871000 187.000000 186.000000 182.000000
-15.765000 39.740000 2.927000 186.000000 185.000000 181.000000
-15.771000 39.626000 2.818000 190.000000 191.000000 186.000000
-15.771000 39.732000 2.827000 188.000000 188.000000 180.000000
-15.772000 39.751000 2.809000 186.000000 187.000000 182.000000
-15.775000 39.763000 2.767000 188.000000 189.000000 184.000000
-15.778000 39.706000 2.715000 190.000000 191.000000 185.000000
-15.774000 39.688000 2.771000 191.000000 192.000000 187.000000
-15.767000 39.762000 2.899000 185.000000 186.000000 181.000000
-15.777000 39.730000 2.736000 190.000000 189.000000 184.000000
-15.776000 39.735000 2.751000 190.000000 191.000000 186.000000
-15.776000 39.779000 2.745000 191.000000 188.000000 183.000000
-15.767000 39.763000 2.897000 185.000000 186.000000 181.000000
-15.774000 39.759000 2.784000 187.000000 188.000000 183.000000
-15.768000 39.735000 2.879000 187.000000 186.000000 182.000000
-15.769000 39.777000 2.857000 186.000000 185.000000 181.000000
-15.774000 39.692000 2.781000 189.000000 190.000000 185.000000
-15.770000 39.768000 2.851000 187.000000 186.000000 182.000000
-15.763000 39.772000 2.959000 185.000000 184.000000 180.000000
-15.774000 39.691000 2.774000 190.000000 191.000000 186.000000
-15.764000 39.744000 2.940000 188.000000 184.000000 181.000000
-15.774000 39.765000 2.775000 187.000000 188.000000 183.000000
-15.780000 39.778000 2.679000 190.000000 189.000000 184.000000
-15.776000 39.765000 2.751000 191.000000 188.000000 183.000000
-15.780000 39.745000 2.682000 191.000000 190.000000 185.000000
-15.762000 39.790000 2.977000 183.000000 184.000000 179.000000
-15.767000 39.714000 2.888000 187.000000 186.000000 182.000000
-15.768000 39.672000 2.868000 184.000000 186.000000 183.000000
-15.767000 39.770000 2.896000 184.000000 186.000000 183.000000
-15.772000 39.691000 2.806000 188.000000 189.000000 184.000000
-15.769000 39.679000 2.860000 186.000000 188.000000 183.000000
-15.768000 39.715000 2.871000 187.000000 186.000000 182.000000
-15.766000 39.770000 2.911000 186.000000 185.000000 181.000000
-15.774000 39.709000 2.780000 189.000000 190.000000 185.000000
-15.780000 39.728000 2.692000 188.000000 189.000000 183.000000
-15.774000 39.727000 2.785000 188.000000 189.000000 184.000000
-15.773000 39.682000 2.795000 189.000000 189.000000 187.000000
-15.766000 39.717000 2.902000 186.000000 187.000000 182.000000
-15.774000 39.687000 2.770000 191.000000 192.000000 187.000000
-15.775000 39.778000 2.768000 187.000000 188.000000 182.000000
-15.770000 39.729000 2.840000 187.000000 186.000000 182.000000
-15.769000 39.739000 2.858000 187.000000 186.000000 182.000000
-15.778000 39.743000 2.719000 190.000000 191.000000 185.000000
-15.778000 39.728000 2.715000 189.000000 190.000000 184.000000
-15.765000 39.748000 2.922000 186.000000 185.000000 181.000000
-15.771000 39.766000 2.830000 188.000000 184.000000 181.000000
-15.769000 39.653000 2.851000 187.000000 187.000000 185.000000
-15.770000 39.680000 2.833000 188.000000 187.000000 182.000000
-15.768000 39.736000 2.867000 188.000000 187.000000 183.000000
-15.763000 39.759000 2.956000 187.000000 183.000000 180.000000
-15.775000 39.726000 2.767000 188.000000 189.000000 184.000000
-15.767000 39.727000 2.890000 186.000000 187.000000 182.000000
-15.777000 39.723000 2.731000 190.000000 189.000000 184.000000
-15.776000 39.717000 2.739000 189.000000 188.000000 183.000000
-15.775000 39.693000 2.757000 191.000000 192.000000 187.000000
-15.767000 39.704000 2.888000 186.000000 187.000000 182.000000
-15.778000 39.717000 2.713000 190.000000 191.000000 185.000000
-15.777000 39.690000 2.734000 190.000000 191.000000 186.000000
-15.779000 39.743000 2.707000 190.000000 191.000000 185.000000
-15.775000 39.714000 2.757000 190.000000 191.000000 186.000000
-15.776000 39.768000 2.751000 191.000000 188.000000 183.000000
-15.772000 39.703000 2.803000 189.000000 190.000000 184.000000
-15.774000 39.717000 2.771000 188.000000 189.000000 184.000000
-15.769000 39.788000 2.863000 186.000000 185.000000 181.000000
-15.778000 39.770000 2.712000 192.000000 189.000000 182.000000
-15.784000 39.778000 2.626000 188.000000 189.000000 183.000000
-15.769000 39.725000 2.865000 187.000000 186.000000 182.000000
-15.773000 39.667000 2.796000 189.000000 190.000000 185.000000
-15.771000 39.629000 2.815000 190.000000 191.000000 186.000000
-15.773000 39.668000 2.796000 189.000000 190.000000 185.000000
-15.776000 39.777000 2.747000 191.000000 188.000000 183.000000
-15.775000 39.668000 2.767000 192.000000 193.000000 188.000000
-15.773000 39.718000 2.797000 188.000000 189.000000 184.000000
-15.777000 39.718000 2.725000 191.000000 190.000000 185.000000
-15.779000 39.762000 2.700000 189.000000 190.000000 184.000000
-15.768000 39.685000 2.875000 186.000000 186.000000 184.000000
-15.782000 39.763000 2.661000 190.000000 189.000000 184.000000
-15.771000 39.786000 2.824000 187.000000 186.000000 182.000000
-15.778000 39.767000 2.725000 192.000000 189.000000 182.000000
-15.773000 39.659000 2.788000 189.000000 190.000000 185.000000
-15.771000 39.659000 2.831000 186.000000 187.000000 182.000000
-15.779000 39.765000 2.694000 190.000000 189.000000 184.000000
-15.771000 39.649000 2.828000 186.000000 187.000000 182.000000
-15.773000 39.710000 2.802000 188.000000 189.000000 183.000000
-15.767000 39.760000 2.888000 185.000000 186.000000 181.000000
-15.772000 39.658000 2.806000 189.000000 190.000000 185.000000
-15.776000 39.711000 2.739000 189.000000 190.000000 185.000000
-15.773000 39.774000 2.796000 185.000000 187.000000 182.000000
-15.772000 39.667000 2.813000 187.000000 188.000000 183.000000
-15.769000 39.731000 2.866000 188.000000 187.000000 183.000000
-15.771000 39.783000 2.821000 187.000000 186.000000 182.000000
-15.774000 39.757000 2.783000 187.000000 188.000000 183.000000
-15.778000 39.738000 2.718000 190.000000 191.000000 185.000000
-15.770000 39.716000 2.839000 188.000000 188.000000 180.000000
-15.768000 39.674000 2.865000 184.000000 186.000000 183.000000
-15.768000 39.703000 2.874000 186.000000 187.000000 182.000000
-15.777000 39.757000 2.740000 190.000000 189.000000 184.000000
-15.780000 39.753000 2.687000 191.000000 190.000000 185.000000
-15.766000 39.710000 2.913000 186.000000 185.000000 181.000000
-15.776000 39.713000 2.743000 188.000000 189.000000 184.000000
-15.770000 39.784000 2.850000 186.000000 185.000000 181.000000
-15.771000 39.781000 2.837000 188.000000 184.000000 181.000000
-15.769000 39.670000 2.859000 185.000000 187.000000 182.000000
-15.765000 39.764000 2.922000 185.000000 184.000000 180.000000
-15.776000 39.776000 2.750000 191.000000 188.000000 183.000000
-15.773000 39.774000 2.799000 185.000000 187.000000 182.000000
-15.771000 39.672000 2.819000 186.000000 187.000000 182.000000
-15.771000 39.727000 2.828000 188.000000 188.000000 180.000000
-15.778000 39.743000 2.722000 189.000000 190.000000 184.000000
-15.763000 39.791000 2.963000 185.000000 184.000000 180.000000
-15.775000 39.743000 2.761000 187.000000 188.000000 183.000000
-15.775000 39.743000 2.770000 188.000000 189.000000 184.000000
-15.777000 39.780000 2.727000 191.000000 188.000000 181.000000
-15.765000 39.743000 2.917000 186.000000 185.000000 181.000000
-15.776000 39.774000 2.753000 189.000000 188.000000 183.000000
-15.779000 39.721000 2.696000 189.000000 190.000000 184.000000
-15.771000 39.632000 2.827000 188.000000 189.000000 184.000000
-15.777000 39.772000 2.735000 191.000000 188.000000 181.000000
-15.779000 39.766000 2.696000 192.000000 189.000000 182.000000
-15.771000 39.675000 2.828000 188.000000 187.000000 183.000000
-15.769000 39.680000 2.864000 185.000000 187.000000 184.000000
-15.767000 39.717000 2.896000 186.000000 187.000000 182.000000
-15.772000 39.784000 2.813000 187.000000 186.000000 182.000000
-15.784000 39.774000 2.627000 188.000000 189.000000 183.000000
-15.777000 39.700000 2.733000 190.000000 191.000000 186.000000
-15.773000 39.651000 2.785000 190.000000 191.000000 186.000000
-15.774000 39.733000 2.779000 188.000000 189.000000 184.000000
-15.775000 39.707000 2.768000 189.000000 190.000000 185.000000
-15.772000 39.662000 2.813000 187.000000 188.000000 183.000000
-15.770000 39.663000 2.844000 186.000000 186.000000 184.000000
-15.767000 39.760000 2.891000 185.000000 186.000000 181.000000
-15.774000 39.752000 2.774000 188.000000 189.000000 184.000000
-15.774000 39.678000 2.782000 190.000000 191.000000 186.000000
-15.782000 39.772000 2.646000 189.000000 190.000000 184.000000
-15.767000 39.679000 2.884000 185.000000 187.000000 184.000000
-15.767000 39.739000 2.887000 186.000000 185.000000 181.000000
-15.767000 39.717000 2.889000 186.000000 187.000000 182.000000
-15.765000 39.744000 2.917000 186.000000 185.000000 181.000000
-15.769000 39.658000 2.859000 187.000000 187.000000 185.000000
-15.763000 39.755000 2.953000 188.000000 184.000000 181.000000
-15.780000 39.770000 2.690000 190.000000 189.000000 184.000000
-15.775000 39.715000 2.769000 189.000000 190.000000 185.000000
-15.772000 39.719000 2.814000 187.000000 188.000000 180.000000
-15.767000 39.751000 2.888000 185.000000 186.000000 181.000000
-15.768000 39.669000 2.864000 185.000000 185.000000 183.000000
-15.771000 39.652000 2.821000 188.000000 189.000000 184.000000
-15.767000 39.689000 2.887000 185.000000 185.000000 183.000000
-15.766000 39.749000 2.907000 185.000000 186.000000 181.000000
-15.772000 39.650000 2.803000 190.000000 191.000000 186.000000
-15.771000 39.685000 2.827000 189.000000 188.000000 183.000000
-15.768000 39.691000 2.866000 186.000000 187.000000 182.000000
-15.778000 39.727000 2.713000 189.000000 190.000000 184.000000
-15.768000 39.775000 2.872000 185.000000 186.000000 181.000000
-15.777000 39.770000 2.738000 191.000000 188.000000 181.000000
-15.768000 39.699000 2.877000 185.000000 186.000000 181.000000
-15.770000 39.660000 2.840000 185.000000 186.000000 181.000000
-15.770000 39.730000 2.846000 187.000000 186.000000 182.000000
-15.775000 39.684000 2.769000 191.000000 192.000000 187.000000
-15.775000 39.687000 2.763000 191.000000 192.000000 187.000000
-15.768000 39.777000 2.880000 185.000000 186.000000 181.000000
-15.769000 39.740000 2.857000 188.000000 187.000000 183.000000
-15.770000 39.741000 2.837000 187.000000 186.000000 182.000000
-15.766000 39.695000 2.899000 186.000000 187.000000 182.000000
-15.773000 39.722000 2.797000 188.000000 189.000000 184.000000
-15.779000 39.722000 2.695000 188.000000 189.000000 183.000000
-15.777000 39.710000 2.733000 190.000000 191.000000 186.000000
-15.765000 39.727000 2.915000 187.000000 186.000000 182.000000
-15.773000 39.773000 2.804000 187.000000 188.000000 183.000000
-15.771000 39.668000 2.820000 187.000000 188.000000 183.000000
-15.779000 39.758000 2.704000 189.000000 190.000000 184.000000
-15.777000 39.736000 2.735000 190.000000 189.000000 184.000000
-15.775000 39.749000 2.772000 188.000000 189.000000 184.000000
-15.773000 39.707000 2.788000 189.000000 190.000000 185.000000
-15.774000 39.756000 2.773000 187.000000 188.000000 183.000000
-15.776000 39.766000 2.752000 191.000000 188.000000 183.000000
-15.773000 39.778000 2.804000 187.000000 188.000000 183.000000
-15.768000 39.676000 2.875000 185.000000 187.000000 184.000000
-15.775000 39.729000 2.766000 188.000000 189.000000 184.000000
-15.777000 39.753000 2.738000 190.000000 189.000000 184.000000
-15.780000 39.775000 2.680000 190.000000 189.000000 184.000000
-15.774000 39.706000 2.780000 189.000000 190.000000 185.000000
-15.767000 39.704000 2.891000 185.000000 186.000000 181.000000
-15.773000 39.648000 2.795000 189.000000 190.000000 185.000000
-15.769000 39.750000 2.864000 187.000000 186.000000 182.000000
-15.769000 39.653000 2.854000 188.000000 188.000000 186.000000
-15.768000 39.677000 2.865000 185.000000 187.000000 184.000000
-15.771000 39.673000 2.827000 187.000000 186.000000 182.000000
-15.776000 39.685000 2.744000 190.000000 191.000000 186.000000
-15.783000 39.779000 2.640000 188.000000 189.000000 183.000000
-15.776000 39.732000 2.747000 189.000000 190.000000 185.000000
-15.774000 39.775000 2.784000 187.000000 186.000000 182.000000
-15.777000 39.779000 2.741000 191.000000 188.000000 181.000000
-15.771000 39.655000 2.821000 187.000000 188.000000 183.000000
-15.774000 39.754000 2.773000 187.000000 188.000000 183.000000
-15.773000 39.741000 2.795000 187.000000 187.000000 185.000000
-15.774000 39.774000 2.782000 187.000000 186.000000 182.000000
-15.766000 39.776000 2.902000 185.000000 185.000000 183.000000
-15.775000 39.775000 2.765000 187.000000 188.000000 182.000000
-15.777000 39.724000 2.726000 191.000000 190.000000 185.000000
-15.775000 39.722000 2.767000 188.000000 189.000000 184.000000
-15.768000 39.784000 2.877000 185.000000 186.000000 181.000000
-15.765000 39.747000 2.919000 186.000000 185.000000 181.000000
-15.776000 39.719000 2.741000 189.000000 188.000000 183.000000
-15.772000 39.691000 2.808000 188.000000 189.000000 184.000000
-15.783000 39.771000 2.635000 188.000000 189.000000 183.000000
-15.781000 39.771000 2.672000 190.000000 189.000000 184.000000
-15.766000 39.707000 2.910000 186.000000 185.000000 181.000000
-15.774000 39.774000 2.782000 187.000000 188.000000 183.000000
-15.779000 39.760000 2.697000 189.000000 190.000000 184.000000
-15.769000 39.710000 2.850000 189.000000 188.000000 183.000000
-15.776000 39.718000 2.750000 189.000000 190.000000 185.000000
-15.774000 39.778000 2.785000 187.000000 186.000000 182.000000
-15.763000 39.775000 2.961000 184.000000 183.000000 179.000000
-15.776000 39.736000 2.744000 190.000000 189.000000 184.000000
-15.766000 39.755000 2.907000 185.000000 186.000000 181.000000
-15.771000 39.702000 2.830000 188.000000 187.000000 182.000000
-15.769000 39.664000 2.850000 187.000000 187.000000 185.000000
-15.767000 39.696000 2.882000 185.000000 185.000000 183.000000
-15.773000 39.658000 2.790000 190.000000 191.000000 186.000000
-15.767000 39.727000 2.898000 186.000000 187.000000 182.000000
-15.769000 39.664000 2.858000 186.000000 186.000000 184.000000
-15.769000 39.684000 2.863000 186.000000 186.000000 184.000000
-15.762000 39.788000 2.966000 184.000000 183.000000 179.000000
-15.783000 39.763000 2.640000 189.000000 190.000000 184.000000
-15.770000 39.728000 2.842000 187.000000 186.000000 182.000000
-15.770000 39.661000 2.847000 186.000000 186.000000 184.000000
-15.773000 39.644000 2.799000 190.000000 191.000000 186.000000
-15.769000 39.717000 2.860000 187.000000 186.000000 181.000000
-15.776000 39.718000 2.744000 189.000000 188.000000 183.000000
-15.770000 39.664000 2.836000 186.000000 187.000000 182.000000
-15.772000 39.713000 2.803000 188.000000 189.000000 183.000000
-15.771000 39.687000 2.820000 189.000000 188.000000 183.000000
-15.770000 39.646000 2.842000 187.000000 187.000000 185.000000
-15.776000 39.725000 2.748000 189.000000 190.000000 185.000000
-15.780000 39.780000 2.680000 190.000000 189.000000 184.000000
-15.775000 39.716000 2.758000 189.000000 190.000000 185.000000
-15.774000 39.738000 2.772000 187.000000 188.000000 183.000000
-15.768000 39.695000 2.871000 185.000000 186.000000 181.000000
-15.776000 39.710000 2.748000 189.000000 190.000000 185.000000
-15.766000 39.745000 2.908000 185.000000 186.000000 181.000000
-15.772000 39.719000 2.817000 186.000000 187.000000 179.000000
-15.769000 39.685000 2.857000 187.000000 188.000000 183.000000
-15.772000 39.723000 2.810000 186.000000 187.000000 181.000000
-15.772000 39.710000 2.817000 187.000000 188.000000 182.000000
-15.768000 39.768000 2.882000 185.000000 186.000000 181.000000
-15.771000 39.736000 2.827000 188.000000 187.000000 182.000000
-15.763000 39.770000 2.952000 185.000000 184.000000 180.000000
-15.768000 39.787000 2.878000 185.000000 186.000000 181.000000
-15.773000 39.726000 2.793000 187.000000 188.000000 183.000000
-15.774000 39.693000 2.771000 189.000000 190.000000 185.000000
-15.769000 39.658000 2.855000 187.000000 187.000000 185.000000
-15.776000 39.728000 2.748000 189.000000 190.000000 185.000000
-15.767000 39.779000 2.896000 184.000000 184.000000 182.000000
-15.776000 39.736000 2.750000 190.000000 191.000000 186.000000
-15.774000 39.779000 2.787000 187.000000 186.000000 182.000000
-15.771000 39.751000 2.832000 187.000000 186.000000 182.000000
-15.774000 39.707000 2.774000 189.000000 190.000000 185.000000
-15.770000 39.647000 2.834000 185.000000 186.000000 181.000000
-15.775000 39.700000 2.757000 191.000000 192.000000 187.000000
-15.767000 39.759000 2.890000 185.000000 186.000000 181.000000
-15.773000 39.700000 2.797000 190.000000 191.000000 186.000000
-15.764000 39.782000 2.933000 187.000000 184.000000 179.000000
-15.768000 39.773000 2.880000 185.000000 186.000000 181.000000
-15.780000 39.779000 2.682000 190.000000 189.000000 184.000000
-15.772000 39.727000 2.804000 186.000000 187.000000 182.000000
-15.766000 39.702000 2.899000 186.000000 187.000000 182.000000
-15.771000 39.807000 2.843000 185.000000 184.000000 180.000000
-15.766000 39.832000 2.954000 185.000000 182.000000 177.000000
-15.762000 39.820000 3.004000 181.000000 181.000000 179.000000
-15.781000 39.794000 2.686000 190.000000 189.000000 184.000000
-15.771000 39.805000 2.851000 185.000000 184.000000 180.000000
-15.768000 39.867000 2.950000 182.000000 183.000000 177.000000
-15.768000 39.869000 2.950000 182.000000 183.000000 177.000000
-15.781000 39.782000 2.668000 191.000000 190.000000 185.000000
-15.765000 39.846000 2.970000 183.000000 182.000000 178.000000
-15.775000 39.807000 2.789000 186.000000 185.000000 181.000000
-15.765000 39.802000 2.939000 186.000000 183.000000 176.000000
-15.770000 39.816000 2.870000 186.000000 185.000000 180.000000
-15.766000 39.791000 2.911000 187.000000 183.000000 180.000000
-15.765000 39.853000 2.985000 180.000000 182.000000 179.000000
-15.763000 39.820000 2.980000 182.000000 183.000000 178.000000
-15.764000 39.815000 2.969000 183.000000 182.000000 178.000000
-15.762000 39.886000 3.057000 180.000000 180.000000 182.000000
-15.762000 39.815000 2.986000 183.000000 182.000000 180.000000
-15.767000 39.868000 2.966000 181.000000 182.000000 177.000000
-15.762000 39.807000 2.989000 183.000000 182.000000 180.000000
