-20.484000 39.326000 2.013000 73.000000 73.000000 73.000000
-20.486000 39.346000 1.901000 70.000000 69.000000 67.000000
-20.486000 39.510000 1.960000 68.000000 68.000000 68.000000
-20.486000 39.038000 1.768000 67.000000 67.000000 67.000000
-20.483000 38.889000 1.831000 73.000000 74.000000 69.000000
-20.486000 38.843000 1.680000 63.000000 62.000000 57.000000
-20.486000 38.920000 1.713000 66.000000 65.000000 61.000000
-20.481000 39.106000 2.063000 83.000000 82.000000 87.000000
-20.485000 38.870000 1.730000 68.000000 65.000000 60.000000
-20.483000 39.176000 2.007000 79.000000 79.000000 81.000000
-20.483000 38.878000 1.861000 76.000000 76.000000 74.000000
-20.482000 39.096000 2.020000 82.000000 81.000000 86.000000
-20.485000 38.928000 1.732000 66.000000 65.000000 61.000000
-20.485000 39.580000 2.039000 61.000000 60.000000 58.000000
-20.486000 39.271000 1.853000 67.000000 67.000000 65.000000
-20.479000 38.668000 1.997000 75.000000 75.000000 73.000000
-20.482000 38.974000 1.968000 83.000000 82.000000 87.000000
-20.482000 38.902000 1.916000 79.000000 79.000000 79.000000
-20.483000 38.985000 1.906000 80.000000 80.000000 82.000000
-20.486000 39.635000 1.996000 61.000000 61.000000 61.000000
-20.484000 39.101000 1.911000 77.000000 78.000000 82.000000
-20.480000 38.857000 2.017000 84.000000 84.000000 82.000000
-20.485000 39.264000 1.895000 73.000000 73.000000 71.000000
-20.485000 39.158000 1.854000 69.000000 71.000000 70.000000
-20.476000 38.393000 2.066000 157.000000 136.000000 107.000000
-20.480000 38.857000 2.050000 85.000000 84.000000 80.000000
-20.485000 38.845000 1.693000 64.000000 63.000000 58.000000
-20.479000 38.685000 1.995000 76.000000 76.000000 74.000000
-20.486000 39.339000 1.878000 69.000000 67.000000 68.000000
-20.485000 39.558000 2.017000 65.000000 63.000000 64.000000
-20.482000 38.930000 1.928000 82.000000 81.000000 86.000000
-20.480000 38.878000 2.009000 84.000000 84.000000 84.000000
-20.477000 38.518000 2.029000 67.000000 66.000000 61.000000
-20.483000 39.025000 1.934000 82.000000 81.000000 86.000000
-20.481000 38.725000 1.901000 73.000000 72.000000 70.000000
-20.485000 38.858000 1.723000 67.000000 64.000000 59.000000
-20.482000 39.016000 1.957000 82.000000 82.000000 84.000000
-20.481000 39.000000 2.033000 85.000000 85.000000 85.000000
-20.477000 38.459000 2.005000 60.000000 61.000000 56.000000
-20.484000 38.896000 1.776000 71.000000 67.000000 66.000000
-20.477000 38.448000 2.025000 60.000000 59.000000 57.000000
-20.479000 38.770000 2.018000 80.000000 80.000000 80.000000
-20.480000 38.964000 2.062000 87.000000 86.000000 84.000000
-20.484000 39.442000 2.043000 62.000000 63.000000 57.000000
-20.480000 38.965000 2.050000 88.000000 86.000000 87.000000
-20.480000 38.853000 2.045000 84.000000 83.000000 79.000000
-20.482000 38.890000 1.912000 79.000000 79.000000 79.000000
-20.484000 39.434000 2.056000 47.000000 34.000000 25.000000
-20.485000 38.799000 1.709000 65.000000 62.000000 55.000000
-20.486000 39.674000 2.033000 56.000000 56.000000 56.000000
-20.483000 39.242000 2.007000 77.000000 77.000000 79.000000
-20.485000 39.235000 1.888000 73.000000 73.000000 71.000000
-20.479000 38.665000 2.012000 74.000000 74.000000 72.000000
-20.484000 39.487000 2.055000 71.000000 69.000000 56.000000
-20.482000 38.712000 1.855000 68.000000 69.000000 63.000000
-20.481000 38.861000 1.984000 84.000000 84.000000 84.000000
-20.486000 39.262000 1.866000 70.000000 70.000000 70.000000
-20.479000 38.680000 2.017000 77.000000 77.000000 75.000000
-20.484000 39.278000 1.980000 75.000000 75.000000 77.000000
-20.478000 38.493000 1.975000 61.000000 62.000000 57.000000
-20.486000 39.594000 1.984000 62.000000 62.000000 62.000000
-20.483000 39.251000 2.022000 75.000000 75.000000 77.000000
-20.486000 38.924000 1.716000 66.000000 65.000000 61.000000
-20.480000 38.778000 1.984000 81.000000 81.000000 79.000000
-20.483000 39.136000 1.946000 79.000000 78.000000 83.000000
-20.480000 38.748000 1.996000 80.000000 80.000000 78.000000
-20.483000 39.111000 1.988000 81.000000 80.000000 86.000000
-20.484000 39.151000 1.888000 74.000000 74.000000 74.000000
-20.485000 39.423000 1.958000 68.000000 68.000000 66.000000
-20.486000 39.008000 1.741000 66.000000 66.000000 64.000000
-20.477000 38.462000 1.998000 59.000000 60.000000 55.000000
-20.483000 39.058000 1.950000 82.000000 81.000000 86.000000
-20.482000 38.988000 1.964000 83.000000 82.000000 87.000000
-20.486000 39.255000 1.864000 70.000000 70.000000 70.000000
-20.481000 38.825000 1.944000 80.000000 80.000000 78.000000
-20.479000 38.558000 1.934000 65.000000 64.000000 59.000000
-20.485000 39.544000 2.032000 67.000000 63.000000 62.000000
-20.480000 38.928000 2.065000 85.000000 84.000000 82.000000
-20.483000 38.996000 1.892000 79.000000 79.000000 81.000000
-20.481000 38.612000 1.882000 65.000000 66.000000 60.000000
-20.485000 38.891000 1.744000 69.000000 66.000000 61.000000
-20.486000 38.926000 1.699000 65.000000 64.000000 60.000000
-20.476000 38.437000 2.049000 56.000000 58.000000 57.000000
-20.482000 39.042000 1.962000 81.000000 80.000000 86.000000
-20.483000 38.757000 1.811000 68.000000 68.000000 60.000000
-20.482000 38.790000 1.887000 76.000000 75.000000 71.000000
-20.485000 39.032000 1.781000 66.000000 66.000000 66.000000
-20.482000 38.691000 1.797000 65.000000 62.000000 57.000000
-20.485000 38.957000 1.795000 69.000000 69.000000 67.000000
-20.486000 39.084000 1.748000 62.000000 64.000000 63.000000
-20.484000 38.876000 1.802000 69.000000 70.000000 65.000000
-20.479000 38.670000 1.987000 74.000000 74.000000 72.000000
-20.480000 38.858000 2.016000 84.000000 84.000000 82.000000
-20.482000 39.141000 2.065000 130.000000 120.000000 118.000000
-20.486000 38.873000 1.665000 65.000000 64.000000 59.000000
-20.486000 39.320000 1.873000 69.000000 67.000000 68.000000
-20.485000 39.565000 2.045000 61.000000 62.000000 64.000000
-20.478000 38.572000 2.025000 70.000000 69.000000 65.000000
-20.483000 39.250000 2.020000 75.000000 75.000000 77.000000
-20.482000 38.762000 1.879000 72.000000 73.000000 68.000000
-20.481000 38.616000 1.881000 65.000000 66.000000 60.000000
-20.483000 39.245000 2.009000 77.000000 77.000000 79.000000
-20.485000 39.071000 1.797000 68.000000 70.000000 69.000000
-20.486000 39.219000 1.810000 66.000000 66.000000 64.000000
-20.485000 38.903000 1.763000 69.000000 65.000000 62.000000
-20.482000 38.797000 1.885000 75.000000 74.000000 70.000000
-20.483000 38.798000 1.796000 68.000000 67.000000 62.000000
-20.479000 38.586000 1.955000 67.000000 68.000000 62.000000
-20.480000 38.883000 2.053000 84.000000 84.000000 82.000000
-20.484000 38.993000 1.830000 71.000000 73.000000 72.000000
-20.479000 38.674000 1.987000 74.000000 74.000000 72.000000
-20.484000 39.316000 2.015000 75.000000 75.000000 75.000000
-20.480000 38.814000 2.018000 83.000000 83.000000 83.000000
-20.486000 38.960000 1.712000 66.000000 65.000000 63.000000
-20.482000 38.795000 1.899000 77.000000 76.000000 72.000000
-20.486000 39.613000 2.020000 62.000000 63.000000 65.000000
-20.485000 38.818000 1.731000 66.000000 63.000000 58.000000
-20.485000 39.376000 1.977000 73.000000 73.000000 73.000000
-20.486000 39.682000 2.038000 55.000000 55.000000 57.000000
-20.485000 39.266000 1.918000 73.000000 73.000000 73.000000
-20.486000 38.972000 1.705000 66.000000 65.000000 63.000000
-20.479000 38.558000 1.952000 64.000000 65.000000 59.000000
-20.482000 38.816000 1.855000 72.000000 73.000000 68.000000
-20.486000 39.536000 1.946000 68.000000 68.000000 68.000000
-20.483000 38.742000 1.789000 67.000000 64.000000 59.000000
-20.483000 38.979000 1.929000 81.000000 81.000000 83.000000
-20.479000 38.734000 2.055000 80.000000 81.000000 76.000000
-20.484000 39.462000 2.054000 20.000000 16.000000 7.000000
-20.482000 38.832000 1.864000 74.000000 74.000000 72.000000
-20.485000 39.342000 1.927000 72.000000 71.000000 69.000000
-20.481000 38.999000 2.018000 84.000000 84.000000 86.000000
-20.486000 39.006000 1.703000 66.000000 65.000000 63.000000
-20.485000 38.998000 1.764000 67.000000 67.000000 67.000000
-20.483000 39.207000 2.010000 80.000000 80.000000 82.000000
-20.485000 38.832000 1.688000 63.000000 63.000000 55.000000
-20.485000 39.135000 1.823000 69.000000 69.000000 71.000000
-20.486000 39.340000 1.860000 67.000000 67.000000 65.000000
-20.484000 39.222000 1.971000 79.000000 79.000000 81.000000
-20.481000 38.826000 1.978000 81.000000 81.000000 81.000000
-20.486000 39.719000 2.068000 90.000000 76.000000 49.000000
-20.482000 39.066000 1.991000 81.000000 80.000000 86.000000
-20.485000 39.041000 1.797000 68.000000 68.000000 68.000000
-20.481000 38.964000 1.985000 84.000000 83.000000 89.000000
-20.480000 38.697000 1.930000 74.000000 74.000000 72.000000
-20.483000 39.052000 1.954000 83.000000 82.000000 88.000000
-20.478000 38.658000 2.074000 71.000000 68.000000 61.000000
-20.486000 39.206000 1.798000 66.000000 66.000000 64.000000
-20.486000 39.431000 1.953000 68.000000 68.000000 66.000000
-20.483000 38.986000 1.883000 79.000000 79.000000 81.000000
-20.481000 38.740000 1.942000 77.000000 76.000000 74.000000
-20.484000 38.987000 1.816000 71.000000 73.000000 72.000000
-20.480000 38.968000 2.066000 86.000000 85.000000 83.000000
-20.484000 39.450000 2.062000 171.000000 145.000000 120.000000
-20.484000 39.399000 2.053000 35.000000 31.000000 28.000000
-20.481000 38.860000 1.984000 84.000000 84.000000 84.000000
-20.484000 39.354000 2.012000 73.000000 73.000000 75.000000
-20.484000 39.112000 1.895000 77.000000 76.000000 81.000000
-20.483000 39.126000 1.988000 83.000000 82.000000 88.000000
-20.484000 38.845000 1.791000 68.000000 67.000000 63.000000
-20.484000 39.352000 2.007000 72.000000 72.000000 74.000000
-20.478000 38.532000 1.973000 65.000000 66.000000 60.000000
-20.482000 38.756000 1.853000 69.000000 70.000000 64.000000
-20.484000 38.909000 1.832000 73.000000 73.000000 71.000000
-20.479000 38.742000 2.018000 78.000000 78.000000 78.000000
-20.484000 39.381000 2.041000 65.000000 65.000000 63.000000
-20.486000 39.450000 1.958000 69.000000 69.000000 67.000000
-20.485000 39.174000 1.876000 73.000000 75.000000 74.000000
-20.484000 39.120000 1.892000 76.000000 75.000000 80.000000
-20.486000 38.942000 1.701000 64.000000 63.000000 59.000000
-20.486000 39.642000 2.048000 56.000000 56.000000 58.000000
-20.483000 39.250000 2.055000 39.000000 25.000000 22.000000
-20.477000 38.480000 2.040000 65.000000 62.000000 57.000000
-20.483000 38.944000 1.903000 77.000000 77.000000 77.000000
-20.484000 38.868000 1.776000 69.000000 65.000000 62.000000
-20.480000 38.798000 1.972000 80.000000 80.000000 78.000000
-20.485000 39.049000 1.791000 68.000000 68.000000 68.000000
-20.483000 38.769000 1.807000 68.000000 67.000000 62.000000
-20.479000 38.600000 1.953000 68.000000 69.000000 63.000000
-20.479000 38.637000 1.959000 72.000000 71.000000 67.000000
-20.486000 39.263000 1.834000 66.000000 66.000000 64.000000
-20.479000 38.724000 2.049000 80.000000 79.000000 75.000000
-20.481000 39.060000 2.063000 84.000000 83.000000 88.000000
-20.486000 39.401000 1.932000 70.000000 70.000000 68.000000
-20.482000 39.207000 2.042000 77.000000 78.000000 80.000000
-20.485000 39.446000 1.991000 70.000000 70.000000 68.000000
-20.484000 39.315000 1.985000 74.000000 74.000000 74.000000
-20.483000 39.148000 1.951000 80.000000 79.000000 84.000000
-20.477000 38.516000 2.071000 65.000000 62.000000 57.000000
-20.486000 38.965000 1.695000 65.000000 64.000000 62.000000
-20.482000 38.980000 1.957000 81.000000 80.000000 85.000000
-20.485000 38.834000 1.711000 66.000000 63.000000 58.000000
-20.480000 38.794000 1.977000 80.000000 80.000000 78.000000
-20.486000 39.102000 1.763000 66.000000 66.000000 66.000000
-20.480000 38.909000 2.055000 88.000000 84.000000 83.000000
-20.484000 39.368000 2.025000 71.000000 71.000000 71.000000
-20.484000 38.943000 1.812000 71.000000 71.000000 69.000000
-20.485000 39.220000 1.893000 73.000000 75.000000 74.000000
-20.485000 39.383000 1.990000 71.000000 71.000000 71.000000
-20.480000 38.905000 2.021000 84.000000 84.000000 84.000000
-20.482000 39.094000 2.037000 83.000000 81.000000 86.000000
-20.479000 38.574000 1.979000 67.000000 68.000000 62.000000
-20.482000 38.703000 1.806000 66.000000 63.000000 58.000000
-20.477000 38.534000 2.075000 62.000000 62.000000 50.000000
-20.479000 38.582000 1.944000 66.000000 69.000000 62.000000
-20.481000 38.762000 1.904000 75.000000 74.000000 72.000000
-20.485000 38.946000 1.786000 70.000000 69.000000 67.000000
-20.482000 38.962000 1.978000 83.000000 82.000000 88.000000
-20.485000 39.252000 1.905000 72.000000 72.000000 72.000000
-20.483000 39.039000 1.897000 79.000000 80.000000 84.000000
-20.482000 39.013000 1.990000 84.000000 83.000000 88.000000
-20.486000 39.325000 1.869000 69.000000 68.000000 66.000000
-20.476000 38.445000 2.068000 56.000000 60.000000 59.000000
-20.482000 38.978000 1.981000 84.000000 83.000000 88.000000
-20.482000 39.142000 2.008000 82.000000 81.000000 87.000000
-20.483000 39.192000 1.978000 81.000000 81.000000 83.000000
-20.484000 38.804000 1.768000 65.000000 64.000000 59.000000
-20.486000 39.523000 1.967000 67.000000 69.000000 68.000000
-20.481000 38.682000 1.910000 72.000000 73.000000 67.000000
-20.484000 38.817000 1.766000 66.000000 65.000000 60.000000
-20.479000 38.522000 1.955000 63.000000 64.000000 59.000000
-20.478000 38.564000 2.027000 70.000000 69.000000 65.000000
-20.482000 38.955000 1.948000 83.000000 82.000000 87.000000
-20.485000 39.127000 1.854000 71.000000 72.000000 74.000000
-20.486000 39.712000 2.035000 55.000000 57.000000 56.000000
-20.484000 38.997000 1.837000 73.000000 75.000000 74.000000
-20.484000 38.893000 1.786000 71.000000 67.000000 66.000000
-20.479000 38.695000 2.039000 77.000000 75.000000 76.000000
-20.486000 39.281000 1.877000 70.000000 70.000000 70.000000
-20.478000 38.580000 2.015000 70.000000 69.000000 65.000000
-20.477000 38.449000 2.046000 58.000000 60.000000 59.000000
-20.481000 38.925000 1.969000 82.000000 82.000000 84.000000
-20.478000 38.684000 2.039000 78.000000 76.000000 77.000000
-20.478000 38.567000 1.991000 71.000000 67.000000 64.000000
-20.482000 38.794000 1.880000 75.000000 74.000000 70.000000
-20.483000 39.284000 2.044000 69.000000 69.000000 69.000000
-20.486000 39.240000 1.854000 69.000000 69.000000 67.000000
-20.485000 38.818000 1.682000 64.000000 64.000000 56.000000
-20.481000 39.009000 2.059000 87.000000 85.000000 88.000000
-20.485000 39.463000 1.984000 70.000000 70.000000 68.000000
-20.482000 39.099000 2.020000 82.000000 81.000000 86.000000
-20.482000 38.985000 1.952000 81.000000 80.000000 85.000000
-20.478000 38.564000 2.018000 70.000000 69.000000 65.000000
-20.482000 39.113000 2.014000 82.000000 81.000000 87.000000
-20.485000 38.985000 1.750000 66.000000 66.000000 64.000000
-20.482000 39.187000 2.032000 80.000000 78.000000 81.000000
-20.486000 39.227000 1.825000 68.000000 68.000000 66.000000
-20.486000 38.902000 1.682000 64.000000 63.000000 58.000000
-20.483000 39.041000 1.916000 81.000000 80.000000 85.000000
-20.483000 38.830000 1.800000 68.000000 67.000000 62.000000
-20.485000 39.035000 1.789000 68.000000 68.000000 68.000000
-20.484000 39.182000 1.930000 78.000000 78.000000 80.000000
-20.486000 39.383000 1.931000 71.000000 70.000000 68.000000
-20.485000 38.975000 1.787000 70.000000 70.000000 68.000000
-20.484000 38.881000 1.767000 69.000000 65.000000 62.000000
-20.486000 39.314000 1.877000 70.000000 68.000000 69.000000
-20.482000 39.154000 2.031000 81.000000 81.000000 83.000000
-20.480000 38.957000 2.055000 90.000000 86.000000 85.000000
-20.479000 38.741000 2.019000 78.000000 78.000000 78.000000
-20.480000 38.589000 1.914000 65.000000 66.000000 60.000000
-20.483000 39.177000 2.022000 82.000000 82.000000 84.000000
-20.481000 39.111000 2.061000 91.000000 85.000000 89.000000
-20.481000 38.999000 2.007000 83.000000 82.000000 87.000000
-20.483000 39.160000 2.007000 82.000000 82.000000 84.000000
-20.486000 39.613000 1.985000 62.000000 62.000000 62.000000
-20.485000 38.859000 1.717000 68.000000 65.000000 60.000000
-20.482000 38.729000 1.858000 69.000000 70.000000 64.000000
-20.478000 38.613000 2.043000 72.000000 71.000000 69.000000
-20.481000 38.750000 1.939000 78.000000 77.000000 75.000000
-20.478000 38.582000 2.027000 70.000000 69.000000 65.000000
-20.485000 39.254000 1.903000 72.000000 72.000000 72.000000
-20.481000 38.669000 1.855000 67.000000 68.000000 62.000000
-20.481000 38.990000 2.025000 84.000000 84.000000 86.000000
-20.484000 39.383000 2.003000 72.000000 72.000000 72.000000
-20.476000 38.426000 2.044000 61.000000 60.000000 55.000000
-20.477000 38.510000 2.075000 66.000000 59.000000 51.000000
-20.486000 39.445000 1.956000 69.000000 69.000000 67.000000
-20.486000 39.495000 1.960000 68.000000 68.000000 68.000000
-20.481000 38.674000 1.910000 72.000000 73.000000 67.000000
-20.482000 39.038000 1.981000 83.000000 82.000000 88.000000
-20.484000 39.242000 1.980000 80.000000 78.000000 81.000000
-20.484000 39.361000 2.039000 68.000000 68.000000 68.000000
-20.481000 38.658000 1.883000 67.000000 70.000000 63.000000
-20.486000 39.581000 1.987000 64.000000 62.000000 63.000000
-20.462000 39.499000 0.941000 59.000000 54.000000 50.000000
-20.466000 39.663000 1.075000 51.000000 50.000000 46.000000
-20.469000 39.589000 1.143000 54.000000 53.000000 51.000000
-20.462000 39.450000 0.942000 58.000000 53.000000 49.000000
-20.472000 39.623000 1.249000 54.000000 53.000000 51.000000
-20.467000 39.660000 1.085000 50.000000 49.000000 45.000000
-20.463000 39.587000 0.984000 53.000000 50.000000 45.000000
-20.470000 39.491000 1.200000 52.000000 51.000000 49.000000
-20.463000 39.560000 0.986000 53.000000 50.000000 45.000000
-20.464000 39.786000 1.005000 50.000000 52.000000 49.000000
-20.472000 39.592000 1.242000 53.000000 52.000000 50.000000
-20.465000 39.759000 1.037000 51.000000 52.000000 46.000000
-20.478000 39.587000 1.430000 56.000000 57.000000 49.000000
-20.468000 39.531000 1.126000 50.000000 51.000000 46.000000
-20.471000 39.489000 1.203000 51.000000 50.000000 48.000000
-20.464000 39.713000 1.014000 52.000000 49.000000 44.000000
-20.466000 39.521000 1.059000 51.000000 50.000000 46.000000
-20.468000 39.491000 1.127000 50.000000 51.000000 45.000000
-20.468000 39.520000 1.120000 48.000000 49.000000 43.000000
-20.467000 39.517000 1.093000 50.000000 51.000000 45.000000
-20.475000 39.566000 1.339000 55.000000 58.000000 51.000000
-20.476000 39.534000 1.369000 56.000000 57.000000 52.000000
-20.462000 39.644000 0.931000 63.000000 59.000000 48.000000
-20.479000 39.582000 1.450000 56.000000 56.000000 48.000000
-20.472000 39.612000 1.255000 55.000000 54.000000 50.000000
-20.478000 39.580000 1.422000 56.000000 57.000000 49.000000
-20.464000 39.542000 1.003000 50.000000 47.000000 42.000000
-20.466000 39.619000 1.061000 48.000000 47.000000 43.000000
-20.472000 39.551000 1.239000 53.000000 53.000000 51.000000
-20.476000 39.540000 1.378000 55.000000 56.000000 51.000000
-20.473000 39.509000 1.290000 54.000000 55.000000 50.000000
-20.480000 39.569000 1.494000 56.000000 57.000000 49.000000
-20.464000 39.720000 1.003000 52.000000 49.000000 44.000000
-20.463000 39.629000 0.971000 52.000000 51.000000 46.000000
-20.475000 39.544000 1.324000 53.000000 54.000000 48.000000
-20.462000 39.710000 0.956000 56.000000 51.000000 45.000000
-20.465000 39.465000 1.030000 45.000000 44.000000 40.000000
-20.471000 39.512000 1.208000 51.000000 50.000000 48.000000
-20.482000 39.541000 1.555000 57.000000 57.000000 47.000000
-20.475000 39.554000 1.338000 56.000000 57.000000 51.000000
-20.469000 39.589000 1.145000 53.000000 52.000000 50.000000
-20.473000 39.563000 1.265000 53.000000 53.000000 51.000000
-20.469000 39.486000 1.153000 54.000000 53.000000 49.000000
-20.469000 39.509000 1.163000 54.000000 53.000000 48.000000
-20.470000 39.701000 1.180000 53.000000 52.000000 48.000000
-20.464000 39.596000 1.009000 50.000000 49.000000 45.000000
-20.469000 39.498000 1.152000 54.000000 53.000000 49.000000
-20.471000 39.564000 1.215000 50.000000 49.000000 47.000000
-20.465000 39.614000 1.034000 51.000000 47.000000 44.000000
-20.474000 39.582000 1.302000 54.000000 55.000000 50.000000
-20.483000 39.527000 1.582000 59.000000 59.000000 49.000000
-20.463000 39.539000 0.969000 51.000000 48.000000 41.000000
-20.463000 39.786000 0.974000 51.000000 52.000000 46.000000
-20.464000 39.597000 0.992000 51.000000 50.000000 45.000000
-20.480000 39.547000 1.505000 56.000000 57.000000 49.000000
-20.472000 39.546000 1.262000 51.000000 51.000000 49.000000
-20.463000 39.594000 0.972000 53.000000 50.000000 43.000000
-20.473000 39.556000 1.285000 53.000000 54.000000 49.000000
-20.467000 39.574000 1.092000 48.000000 49.000000 44.000000
-20.478000 39.553000 1.434000 57.000000 57.000000 49.000000
-20.463000 39.708000 0.974000 53.000000 50.000000 43.000000
-20.461000 39.638000 0.927000 72.000000 63.000000 48.000000
-20.466000 39.659000 1.055000 53.000000 50.000000 45.000000
-20.465000 39.678000 1.030000 49.000000 48.000000 43.000000
-20.466000 39.675000 1.081000 50.000000 49.000000 44.000000
-20.463000 39.503000 0.973000 52.000000 49.000000 42.000000
-20.466000 39.661000 1.058000 53.000000 50.000000 45.000000
-20.469000 39.597000 1.153000 52.000000 52.000000 52.000000
-20.478000 39.590000 1.432000 56.000000 57.000000 49.000000
-20.468000 39.503000 1.113000 52.000000 53.000000 47.000000
-20.465000 39.720000 1.034000 51.000000 52.000000 46.000000
-20.465000 39.735000 1.040000 50.000000 51.000000 45.000000
-20.465000 39.748000 1.048000 53.000000 52.000000 47.000000
-20.480000 39.526000 1.483000 56.000000 57.000000 49.000000
-20.467000 39.472000 1.084000 49.000000 50.000000 44.000000
-20.471000 39.498000 1.215000 51.000000 50.000000 46.000000
-20.473000 39.600000 1.278000 56.000000 55.000000 50.000000
-20.469000 39.648000 1.150000 52.000000 50.000000 51.000000
-20.468000 39.624000 1.135000 51.000000 50.000000 48.000000
-20.466000 39.563000 1.070000 50.000000 49.000000 45.000000
-20.465000 39.456000 1.036000 47.000000 46.000000 42.000000
-20.473000 39.639000 1.293000 58.000000 59.000000 51.000000
-20.478000 39.582000 1.445000 56.000000 56.000000 48.000000
-20.471000 39.575000 1.220000 52.000000 51.000000 49.000000
-20.469000 39.515000 1.146000 54.000000 53.000000 49.000000
-20.479000 39.535000 1.466000 57.000000 58.000000 50.000000
-20.476000 39.543000 1.382000 55.000000 56.000000 51.000000
-20.462000 39.465000 0.954000 52.000000 52.000000 42.000000
-20.466000 39.491000 1.055000 50.000000 49.000000 45.000000
-20.463000 39.561000 0.961000 52.000000 51.000000 46.000000
-20.474000 39.558000 1.314000 54.000000 57.000000 50.000000
-20.463000 39.600000 0.983000 53.000000 50.000000 45.000000
-20.463000 39.563000 0.980000 52.000000 49.000000 42.000000
-20.472000 39.653000 1.239000 55.000000 54.000000 50.000000
-20.475000 39.489000 1.330000 54.000000 55.000000 50.000000
-20.463000 39.574000 0.970000 53.000000 50.000000 43.000000
-20.471000 39.492000 1.225000 50.000000 49.000000 45.000000
-20.463000 39.514000 0.966000 51.000000 48.000000 41.000000
-20.468000 39.621000 1.133000 52.000000 51.000000 47.000000
-20.468000 39.501000 1.117000 51.000000 52.000000 46.000000
-20.473000 39.612000 1.272000 55.000000 54.000000 50.000000
-20.461000 39.608000 0.925000 71.000000 62.000000 47.000000
-20.472000 39.647000 1.249000 55.000000 54.000000 50.000000
-20.476000 39.624000 1.369000 59.000000 60.000000 52.000000
-20.464000 39.507000 1.007000 51.000000 47.000000 44.000000
-20.468000 39.521000 1.124000 49.000000 50.000000 44.000000
-20.466000 39.573000 1.060000 49.000000 48.000000 44.000000
-20.462000 39.538000 0.954000 53.000000 53.000000 45.000000
-20.466000 39.679000 1.057000 49.000000 50.000000 44.000000
-20.477000 39.531000 1.386000 54.000000 55.000000 50.000000
-20.468000 39.706000 1.117000 52.000000 51.000000 49.000000
-20.461000 39.527000 0.921000 59.000000 46.000000 29.000000
-20.462000 39.495000 0.951000 55.000000 52.000000 43.000000
-20.476000 39.610000 1.374000 57.000000 58.000000 52.000000
-20.466000 39.706000 1.062000 51.000000 50.000000 46.000000
-20.464000 39.650000 0.992000 51.000000 50.000000 46.000000
-20.463000 39.773000 0.987000 54.000000 53.000000 48.000000
-20.462000 39.818000 0.931000 180.000000 134.000000 82.000000
-20.466000 39.673000 1.073000 51.000000 50.000000 46.000000
-20.462000 39.598000 0.932000 64.000000 55.000000 50.000000
-20.472000 39.568000 1.263000 53.000000 53.000000 51.000000
-20.474000 39.533000 1.313000 53.000000 54.000000 48.000000
-20.468000 39.528000 1.114000 49.000000 50.000000 45.000000
-20.466000 39.652000 1.066000 51.000000 47.000000 44.000000
-20.470000 39.631000 1.193000 50.000000 49.000000 47.000000
-20.465000 39.736000 1.042000 51.000000 50.000000 45.000000
-20.464000 39.605000 1.015000 52.000000 48.000000 45.000000
-20.465000 39.657000 1.036000 53.000000 50.000000 45.000000
-20.475000 39.494000 1.343000 55.000000 56.000000 51.000000
-20.465000 39.639000 1.042000 52.000000 49.000000 44.000000
-20.463000 39.640000 0.963000 54.000000 50.000000 41.000000
-20.464000 39.657000 1.009000 50.000000 49.000000 45.000000
-20.473000 39.647000 1.288000 59.000000 59.000000 51.000000
-20.477000 39.524000 1.388000 55.000000 56.000000 51.000000
-20.471000 39.537000 1.217000 49.000000 48.000000 46.000000
-20.467000 39.525000 1.097000 47.000000 48.000000 42.000000
-20.462000 39.660000 0.942000 53.000000 52.000000 47.000000
-20.465000 39.607000 1.021000 51.000000 47.000000 44.000000
-20.467000 39.614000 1.086000 50.000000 49.000000 45.000000
-20.461000 39.614000 0.923000 70.000000 61.000000 46.000000
-20.462000 39.534000 0.946000 55.000000 55.000000 47.000000
-20.462000 39.731000 0.938000 62.000000 58.000000 49.000000
-20.463000 39.466000 0.986000 50.000000 49.000000 44.000000
-20.474000 39.506000 1.301000 54.000000 55.000000 49.000000
-20.463000 39.530000 0.969000 52.000000 49.000000 42.000000
-20.466000 39.682000 1.079000 50.000000 49.000000 44.000000
-20.462000 39.547000 0.945000 56.000000 53.000000 46.000000
-20.464000 39.782000 1.004000 52.000000 54.000000 49.000000
-20.466000 39.753000 1.068000 55.000000 55.000000 53.000000
-20.472000 39.619000 1.242000 54.000000 53.000000 51.000000
-20.465000 39.550000 1.038000 53.000000 50.000000 45.000000
-20.472000 39.667000 1.245000 57.000000 56.000000 52.000000
-20.475000 39.592000 1.336000 58.000000 59.000000 53.000000
-20.462000 39.812000 0.940000 192.000000 149.000000 96.000000
-20.470000 39.481000 1.184000 52.000000 51.000000 47.000000
-20.475000 39.560000 1.325000 54.000000 57.000000 50.000000
-20.469000 39.706000 1.153000 56.000000 52.000000 53.000000
-20.471000 39.620000 1.226000 53.000000 52.000000 50.000000
-20.481000 39.554000 1.509000 56.000000 57.000000 49.000000
-20.463000 39.495000 0.988000 48.000000 47.000000 42.000000
-20.466000 39.559000 1.079000 51.000000 50.000000 46.000000
-20.468000 39.541000 1.116000 51.000000 52.000000 47.000000
-20.471000 39.582000 1.226000 53.000000 52.000000 50.000000
-20.478000 39.596000 1.420000 56.000000 57.000000 49.000000
-20.473000 39.545000 1.265000 52.000000 52.000000 50.000000
-20.474000 39.642000 1.320000 60.000000 60.000000 52.000000
-20.461000 39.779000 0.924000 73.000000 64.000000 49.000000
-20.465000 39.700000 1.022000 52.000000 49.000000 44.000000
-20.480000 39.534000 1.501000 57.000000 58.000000 50.000000
-20.464000 39.589000 1.019000 52.000000 48.000000 45.000000
-20.466000 39.641000 1.075000 49.000000 48.000000 44.000000
-20.470000 39.578000 1.172000 51.000000 50.000000 46.000000
-20.476000 39.606000 1.381000 58.000000 59.000000 53.000000
-20.479000 39.559000 1.459000 56.000000 57.000000 49.000000
-20.477000 39.529000 1.390000 55.000000 56.000000 51.000000
-20.462000 39.734000 0.942000 61.000000 54.000000 44.000000
-20.462000 39.481000 0.949000 55.000000 52.000000 43.000000
-20.469000 39.627000 1.158000 52.000000 50.000000 51.000000
-20.464000 39.724000 1.009000 51.000000 48.000000 43.000000
-20.471000 39.532000 1.211000 50.000000 49.000000 47.000000
-20.465000 39.557000 1.048000 51.000000 48.000000 43.000000
-20.462000 39.609000 0.947000 56.000000 54.000000 42.000000
-20.466000 39.534000 1.058000 51.000000 48.000000 43.000000
-20.470000 39.639000 1.194000 52.000000 51.000000 49.000000
-20.466000 39.600000 1.071000 49.000000 48.000000 44.000000
-20.464000 39.563000 1.006000 51.000000 48.000000 43.000000
-20.466000 39.755000 1.072000 55.000000 55.000000 53.000000
-20.479000 39.570000 1.453000 56.000000 57.000000 49.000000
-20.463000 39.530000 0.971000 52.000000 49.000000 42.000000
-20.472000 39.670000 1.248000 58.000000 57.000000 53.000000
-20.477000 39.591000 1.387000 56.000000 57.000000 51.000000
-20.469000 39.569000 1.142000 56.000000 55.000000 51.000000
-20.462000 39.490000 0.958000 53.000000 50.000000 41.000000
-20.467000 39.546000 1.082000 51.000000 50.000000 46.000000
-20.473000 39.572000 1.290000 54.000000 55.000000 50.000000
-20.467000 39.507000 1.085000 50.000000 51.000000 45.000000
-20.465000 39.732000 1.032000 49.000000 50.000000 44.000000
-20.477000 39.587000 1.393000 56.000000 57.000000 52.000000
-20.464000 39.651000 1.018000 52.000000 49.000000 44.000000
-20.467000 39.613000 1.085000 50.000000 49.000000 45.000000
-20.463000 39.613000 0.978000 51.000000 48.000000 43.000000
-20.471000 39.583000 1.206000 51.000000 50.000000 48.000000
-20.467000 39.599000 1.091000 50.000000 51.000000 46.000000
-20.467000 39.718000 1.084000 52.000000 53.000000 47.000000
-20.462000 39.700000 0.945000 59.000000 52.000000 44.000000
-20.466000 39.514000 1.062000 50.000000 51.000000 45.000000
-20.478000 39.597000 1.417000 55.000000 56.000000 48.000000
-20.472000 39.520000 1.234000 50.000000 48.000000 49.000000
-20.469000 39.511000 1.150000 55.000000 54.000000 50.000000
-20.468000 39.584000 1.135000 52.000000 51.000000 47.000000
-20.464000 39.672000 0.994000 52.000000 49.000000 44.000000
-20.467000 39.503000 1.099000 50.000000 51.000000 45.000000
-20.480000 39.567000 1.487000 56.000000 57.000000 49.000000
-20.483000 39.524000 1.577000 59.000000 59.000000 49.000000
-20.478000 39.535000 1.421000 55.000000 56.000000 50.000000
-20.465000 39.460000 1.047000 48.000000 47.000000 43.000000
-20.465000 39.596000 1.026000 51.000000 47.000000 44.000000
-20.471000 39.613000 1.210000 51.000000 50.000000 48.000000
-20.476000 39.599000 1.374000 57.000000 58.000000 52.000000
-20.474000 39.499000 1.315000 54.000000 55.000000 50.000000
-20.474000 39.534000 1.311000 54.000000 55.000000 49.000000
-20.475000 39.599000 1.329000 58.000000 59.000000 53.000000
-20.466000 39.738000 1.069000 52.000000 53.000000 48.000000
-20.477000 39.513000 1.390000 55.000000 56.000000 51.000000
-20.463000 39.685000 0.973000 53.000000 50.000000 43.000000
-20.469000 39.653000 1.154000 53.000000 51.000000 52.000000
-20.466000 39.619000 1.055000 51.000000 47.000000 44.000000
-20.466000 39.714000 1.072000 50.000000 49.000000 45.000000
-20.464000 39.509000 1.013000 49.000000 48.000000 44.000000
-20.474000 39.508000 1.301000 54.000000 55.000000 49.000000
-20.464000 39.668000 1.013000 51.000000 48.000000 43.000000
-20.462000 39.673000 0.947000 56.000000 52.000000 43.000000
-20.463000 39.467000 0.966000 50.000000 50.000000 42.000000
-20.467000 39.603000 1.105000 50.000000 51.000000 46.000000
-20.467000 39.528000 1.109000 50.000000 49.000000 45.000000
-20.474000 39.537000 1.305000 55.000000 56.000000 50.000000
-20.475000 39.571000 1.343000 56.000000 59.000000 52.000000
-20.465000 39.503000 1.034000 50.000000 49.000000 45.000000
-20.466000 39.586000 1.064000 49.000000 48.000000 44.000000
-20.476000 39.571000 1.377000 56.000000 57.000000 51.000000
-20.465000 39.504000 1.025000 49.000000 48.000000 44.000000
-20.475000 39.593000 1.345000 57.000000 58.000000 52.000000
-20.472000 39.573000 1.237000 51.000000 51.000000 49.000000
-20.464000 39.759000 0.997000 60.000000 57.000000 52.000000
-20.467000 39.599000 1.107000 50.000000 51.000000 46.000000
-20.469000 39.613000 1.168000 51.000000 50.000000 48.000000
-20.472000 39.514000 1.242000 51.000000 51.000000 51.000000
-20.462000 39.500000 0.937000 56.000000 51.000000 47.000000
-20.471000 39.546000 1.216000 49.000000 48.000000 46.000000
-20.462000 39.781000 0.946000 59.000000 56.000000 51.000000
-20.476000 39.539000 1.378000 55.000000 56.000000 51.000000
-20.463000 39.614000 0.974000 52.000000 49.000000 42.000000
-20.463000 39.655000 0.967000 51.000000 50.000000 45.000000
-20.464000 39.467000 1.013000 48.000000 47.000000 43.000000
-20.462000 39.739000 0.930000 64.000000 60.000000 49.000000
-20.463000 39.528000 0.982000 52.000000 49.000000 42.000000
-20.468000 39.473000 1.117000 52.000000 53.000000 48.000000
-20.463000 39.746000 0.989000 59.000000 56.000000 51.000000
-20.476000 39.550000 1.383000 56.000000 57.000000 52.000000
-20.467000 39.507000 1.092000 50.000000 51.000000 45.000000
-20.467000 39.679000 1.110000 52.000000 51.000000 46.000000
-20.471000 39.687000 1.206000 55.000000 54.000000 50.000000
-20.467000 39.551000 1.090000 50.000000 49.000000 45.000000
-20.475000 39.537000 1.345000 55.000000 56.000000 50.000000
-20.476000 39.563000 1.378000 56.000000 57.000000 51.000000
-20.468000 39.484000 1.119000 51.000000 52.000000 46.000000
-20.461000 39.667000 0.924000 66.000000 60.000000 48.000000
-20.471000 39.493000 1.217000 51.000000 50.000000 46.000000
-20.468000 39.624000 1.122000 51.000000 50.000000 46.000000
-20.472000 39.507000 1.259000 50.000000 50.000000 48.000000
-20.465000 39.715000 1.040000 49.000000 48.000000 43.000000
-20.464000 39.549000 1.000000 51.000000 48.000000 43.000000
-20.468000 39.573000 1.114000 52.000000 49.000000 44.000000
-20.476000 39.496000 1.356000 55.000000 56.000000 51.000000
-20.476000 39.545000 1.362000 56.000000 57.000000 52.000000
-20.470000 39.634000 1.179000 52.000000 51.000000 49.000000
-20.463000 39.464000 0.980000 50.000000 49.000000 44.000000
-20.470000 39.708000 1.182000 54.000000 53.000000 49.000000
-20.475000 39.512000 1.331000 54.000000 55.000000 50.000000
-20.465000 39.511000 1.022000 47.000000 46.000000 42.000000
-20.463000 39.638000 0.978000 50.000000 49.000000 44.000000
-20.469000 39.571000 1.158000 54.000000 51.000000 46.000000
-20.463000 39.550000 0.984000 52.000000 49.000000 42.000000
-20.462000 39.470000 0.931000 64.000000 55.000000 46.000000
-20.472000 39.604000 1.241000 54.000000 53.000000 51.000000
-20.477000 39.501000 1.408000 55.000000 58.000000 51.000000
-20.466000 39.666000 1.055000 50.000000 47.000000 42.000000
-20.465000 39.755000 1.026000 51.000000 50.000000 45.000000
-20.471000 39.642000 1.233000 54.000000 53.000000 49.000000
-20.463000 39.753000 0.969000 54.000000 51.000000 44.000000
-20.462000 39.591000 0.938000 60.000000 53.000000 47.000000
-20.465000 39.475000 1.027000 50.000000 46.000000 43.000000
-20.478000 39.584000 1.438000 55.000000 56.000000 48.000000
-20.475000 39.604000 1.332000 58.000000 59.000000 53.000000
-20.473000 39.657000 1.271000 58.000000 58.000000 50.000000
-20.463000 39.793000 0.982000 58.000000 55.000000 50.000000
-20.482000 39.534000 1.545000 57.000000 57.000000 47.000000
-20.472000 39.671000 1.247000 57.000000 56.000000 52.000000
-20.478000 39.565000 1.428000 56.000000 57.000000 49.000000
-20.477000 39.523000 1.390000 55.000000 56.000000 51.000000
-20.465000 39.514000 1.045000 50.000000 49.000000 45.000000
-20.466000 39.549000 1.068000 49.000000 48.000000 44.000000
-20.466000 39.684000 1.078000 51.000000 50.000000 45.000000
-20.468000 39.495000 1.135000 50.000000 51.000000 46.000000
-20.482000 39.540000 1.548000 58.000000 58.000000 48.000000
-20.471000 39.533000 1.222000 50.000000 49.000000 47.000000
-20.462000 39.638000 0.932000 60.000000 54.000000 42.000000
-20.466000 39.539000 1.065000 49.000000 48.000000 44.000000
-20.471000 39.571000 1.221000 51.000000 50.000000 48.000000
-20.474000 39.562000 1.323000 54.000000 57.000000 50.000000
-20.469000 39.557000 1.154000 53.000000 52.000000 48.000000
-20.463000 39.593000 0.990000 51.000000 50.000000 45.000000
-20.463000 39.696000 0.978000 53.000000 50.000000 45.000000
-20.461000 39.752000 0.926000 68.000000 60.000000 47.000000
-20.468000 39.545000 1.117000 52.000000 51.000000 47.000000
-20.465000 39.467000 1.043000 48.000000 47.000000 43.000000
-20.466000 39.667000 1.067000 52.000000 48.000000 45.000000
-20.463000 39.572000 0.968000 53.000000 50.000000 43.000000
-20.468000 39.733000 1.126000 56.000000 52.000000 51.000000
-20.473000 39.627000 1.291000 57.000000 58.000000 52.000000
-20.475000 39.550000 1.342000 55.000000 56.000000 50.000000
-20.463000 39.582000 0.986000 53.000000 50.000000 45.000000
-20.470000 39.685000 1.184000 53.000000 52.000000 48.000000
-20.472000 39.517000 1.247000 51.000000 51.000000 51.000000
-20.462000 39.696000 0.948000 58.000000 51.000000 43.000000
-20.475000 39.510000 1.326000 54.000000 55.000000 50.000000
-20.468000 39.565000 1.133000 54.000000 53.000000 49.000000
-20.470000 39.531000 1.187000 50.000000 49.000000 45.000000
-20.463000 39.579000 0.962000 51.000000 51.000000 43.000000
-20.480000 39.565000 1.506000 56.000000 57.000000 49.000000
-20.465000 39.757000 1.027000 51.000000 50.000000 45.000000
-20.467000 39.643000 1.110000 51.000000 50.000000 45.000000
-20.463000 39.639000 0.987000 51.000000 50.000000 45.000000
-20.465000 39.738000 1.030000 49.000000 50.000000 44.000000
-20.473000 39.622000 1.288000 57.000000 56.000000 51.000000
-20.472000 39.493000 1.244000 52.000000 52.000000 50.000000
-20.467000 39.665000 1.097000 51.000000 50.000000 46.000000
-20.470000 39.671000 1.175000 53.000000 52.000000 50.000000
-20.472000 39.519000 1.253000 50.000000 50.000000 48.000000
-20.476000 39.529000 1.369000 55.000000 56.000000 51.000000
-20.463000 39.628000 0.977000 51.000000 50.000000 45.000000
-20.463000 39.669000 0.981000 54.000000 51.000000 46.000000
-20.463000 39.589000 0.971000 52.000000 49.000000 42.000000
-20.472000 39.623000 1.258000 57.000000 56.000000 52.000000
-20.463000 39.544000 0.960000 54.000000 51.000000 46.000000
-20.476000 39.568000 1.369000 58.000000 59.000000 53.000000
-20.462000 39.463000 0.937000 61.000000 53.000000 50.000000
-20.475000 39.551000 1.326000 54.000000 55.000000 49.000000
-20.463000 39.728000 0.987000 57.000000 54.000000 49.000000
-20.470000 39.625000 1.201000 51.000000 50.000000 48.000000
-20.466000 39.482000 1.058000 50.000000 49.000000 45.000000
-20.473000 39.614000 1.278000 56.000000 55.000000 50.000000
-20.467000 39.537000 1.084000 50.000000 49.000000 45.000000
-20.465000 39.662000 1.040000 53.000000 50.000000 45.000000
-20.473000 39.584000 1.281000 54.000000 53.000000 48.000000
-20.468000 39.695000 1.140000 55.000000 51.000000 50.000000
-20.468000 39.696000 1.126000 53.000000 52.000000 48.000000
-20.462000 39.684000 0.942000 56.000000 52.000000 43.000000
-20.467000 39.502000 1.088000 51.000000 52.000000 46.000000
-20.461000 39.540000 0.921000 68.000000 57.000000 39.000000
-20.477000 39.521000 1.395000 55.000000 56.000000 51.000000
-20.471000 39.607000 1.221000 52.000000 51.000000 49.000000
-20.470000 39.593000 1.175000 52.000000 51.000000 49.000000
-20.470000 39.487000 1.192000 51.000000 50.000000 48.000000
-20.464000 39.740000 1.002000 52.000000 49.000000 44.000000
-20.464000 39.551000 1.001000 50.000000 47.000000 42.000000
-20.475000 39.570000 1.328000 55.000000 58.000000 51.000000
-20.465000 39.632000 1.045000 52.000000 49.000000 44.000000
-20.475000 39.544000 1.340000 56.000000 57.000000 51.000000
-20.463000 39.623000 0.986000 51.000000 50.000000 45.000000
-20.467000 39.613000 1.084000 50.000000 49.000000 45.000000
-20.467000 39.674000 1.099000 51.000000 50.000000 48.000000
-20.465000 39.620000 1.041000 52.000000 48.000000 45.000000
-20.461000 39.545000 0.921000 65.000000 54.000000 36.000000
-20.467000 39.606000 1.098000 49.000000 50.000000 45.000000
-20.466000 39.593000 1.060000 50.000000 49.000000 45.000000
-20.471000 39.521000 1.207000 50.000000 49.000000 47.000000
-20.463000 39.616000 0.986000 54.000000 51.000000 46.000000
-20.468000 39.689000 1.118000 52.000000 51.000000 47.000000
-20.473000 39.579000 1.282000 55.000000 54.000000 49.000000
-20.468000 39.733000 1.126000 56.000000 52.000000 51.000000
-20.468000 39.643000 1.139000 52.000000 51.000000 49.000000
-20.465000 39.531000 1.023000 52.000000 49.000000 44.000000
-20.471000 39.615000 1.216000 51.000000 50.000000 48.000000
-20.473000 39.527000 1.271000 52.000000 53.000000 48.000000
-20.471000 39.596000 1.231000 53.000000 52.000000 50.000000
-20.468000 39.549000 1.125000 49.000000 48.000000 44.000000
-20.470000 39.611000 1.173000 51.000000 50.000000 48.000000
-20.464000 39.590000 1.015000 51.000000 47.000000 44.000000
-20.467000 39.599000 1.094000 51.000000 52.000000 47.000000
-20.477000 39.550000 1.402000 54.000000 56.000000 51.000000
-20.469000 39.518000 1.162000 54.000000 53.000000 48.000000
-20.471000 39.508000 1.217000 50.000000 49.000000 47.000000
-20.475000 39.492000 1.347000 55.000000 56.000000 51.000000
-20.475000 39.505000 1.337000 55.000000 56.000000 51.000000
-20.474000 39.532000 1.313000 53.000000 54.000000 48.000000
-20.467000 39.576000 1.108000 52.000000 49.000000 44.000000
-20.476000 39.567000 1.359000 58.000000 59.000000 53.000000
-20.469000 39.625000 1.149000 51.000000 49.000000 50.000000
-20.475000 39.497000 1.331000 53.000000 54.000000 49.000000
-20.465000 39.548000 1.021000 52.000000 49.000000 44.000000
-20.465000 39.608000 1.022000 51.000000 47.000000 44.000000
-20.466000 39.718000 1.076000 50.000000 51.000000 45.000000
-20.462000 39.457000 0.948000 53.000000 53.000000 43.000000
-20.465000 39.536000 1.026000 50.000000 47.000000 42.000000
-20.480000 39.512000 1.489000 56.000000 57.000000 49.000000
-20.462000 39.476000 0.936000 57.000000 52.000000 48.000000
-20.466000 39.665000 1.068000 52.000000 48.000000 45.000000
-20.467000 39.538000 1.094000 50.000000 49.000000 45.000000
-20.463000 39.729000 0.989000 55.000000 52.000000 47.000000
-20.478000 39.591000 1.443000 56.000000 57.000000 49.000000
-20.463000 39.724000 0.987000 57.000000 54.000000 49.000000
-20.465000 39.466000 1.041000 48.000000 47.000000 43.000000
-20.466000 39.481000 1.067000 48.000000 49.000000 43.000000
-20.474000 39.652000 1.301000 60.000000 60.000000 52.000000
-20.464000 39.692000 0.992000 54.000000 51.000000 46.000000
-20.470000 39.665000 1.177000 53.000000 52.000000 50.000000
-20.462000 39.717000 0.934000 59.000000 56.000000 47.000000
-20.464000 39.471000 1.018000 50.000000 46.000000 43.000000
-20.469000 39.678000 1.155000 53.000000 52.000000 50.000000
-20.478000 39.500000 1.424000 57.000000 58.000000 52.000000
-20.474000 39.621000 1.305000 58.000000 59.000000 51.000000
-20.466000 39.698000 1.069000 52.000000 51.000000 47.000000
-20.470000 39.509000 1.174000 52.000000 51.000000 47.000000
-20.466000 39.596000 1.069000 49.000000 48.000000 44.000000
-20.463000 39.771000 0.977000 53.000000 50.000000 45.000000
-20.464000 39.546000 0.996000 51.000000 48.000000 43.000000
-20.463000 39.531000 0.986000 53.000000 50.000000 43.000000
-20.470000 39.682000 1.176000 53.000000 52.000000 50.000000
-20.467000 39.647000 1.090000 50.000000 49.000000 45.000000
-20.469000 39.547000 1.147000 57.000000 56.000000 52.000000
-20.478000 39.550000 1.418000 56.000000 57.000000 51.000000
-20.462000 39.499000 0.952000 53.000000 50.000000 41.000000
-20.473000 39.560000 1.267000 52.000000 52.000000 50.000000
-20.466000 39.534000 1.065000 50.000000 49.000000 45.000000
-20.466000 39.458000 1.068000 49.000000 50.000000 44.000000
-20.468000 39.582000 1.121000 54.000000 51.000000 46.000000
-20.462000 39.486000 0.953000 54.000000 51.000000 42.000000
-20.477000 39.568000 1.393000 56.000000 57.000000 51.000000
-20.471000 39.578000 1.209000 51.000000 50.000000 48.000000
-20.461000 39.536000 0.923000 57.000000 46.000000 28.000000
-20.462000 39.519000 0.945000 55.000000 52.000000 45.000000
-20.467000 39.629000 1.108000 50.000000 49.000000 44.000000
-20.465000 39.761000 1.023000 53.000000 52.000000 47.000000
-20.478000 39.548000 1.431000 57.000000 58.000000 50.000000
-20.462000 39.697000 0.954000 55.000000 50.000000 44.000000
-20.471000 39.620000 1.210000 51.000000 50.000000 48.000000
-20.482000 39.524000 1.557000 56.000000 57.000000 49.000000
-20.478000 39.503000 1.420000 58.000000 59.000000 53.000000
-20.468000 39.522000 1.132000 49.000000 50.000000 45.000000
-20.466000 39.468000 1.059000 49.000000 50.000000 45.000000
-20.476000 39.591000 1.369000 57.000000 58.000000 52.000000
-20.463000 39.686000 0.978000 53.000000 50.000000 45.000000
-20.464000 39.499000 1.011000 47.000000 46.000000 42.000000
-20.474000 39.567000 1.317000 55.000000 58.000000 51.000000
-20.477000 39.540000 1.412000 55.000000 56.000000 51.000000
-20.467000 39.657000 1.090000 51.000000 50.000000 46.000000
-20.464000 39.590000 1.000000 50.000000 49.000000 45.000000
-20.468000 39.552000 1.126000 51.000000 50.000000 46.000000
-20.475000 39.521000 1.342000 54.000000 55.000000 50.000000
-20.465000 39.662000 1.041000 53.000000 50.000000 45.000000
-20.465000 39.530000 1.022000 56.000000 53.000000 48.000000
-20.466000 39.608000 1.057000 50.000000 46.000000 43.000000
-20.470000 39.497000 1.199000 52.000000 51.000000 49.000000
-20.470000 39.649000 1.176000 53.000000 52.000000 50.000000
-20.479000 39.542000 1.449000 56.000000 57.000000 49.000000
-20.467000 39.597000 1.086000 49.000000 48.000000 44.000000
-20.470000 39.505000 1.188000 51.000000 50.000000 46.000000
-20.469000 39.637000 1.159000 52.000000 50.000000 51.000000
-20.472000 39.558000 1.237000 51.000000 51.000000 49.000000
-20.474000 39.577000 1.321000 55.000000 56.000000 51.000000
-20.466000 39.668000 1.058000 51.000000 48.000000 43.000000
-20.464000 39.572000 1.004000 50.000000 49.000000 45.000000
-20.464000 39.707000 1.003000 52.000000 48.000000 45.000000
-20.470000 39.490000 1.191000 51.000000 50.000000 48.000000
-20.464000 39.708000 1.017000 52.000000 49.000000 44.000000
-20.466000 39.611000 1.062000 49.000000 48.000000 44.000000
-20.463000 39.785000 0.987000 50.000000 51.000000 46.000000
-20.469000 39.625000 1.170000 51.000000 49.000000 50.000000
-20.474000 39.577000 1.320000 55.000000 56.000000 51.000000
-20.464000 39.563000 1.017000 51.000000 48.000000 43.000000
-20.468000 39.577000 1.134000 51.000000 50.000000 46.000000
-20.470000 39.502000 1.187000 52.000000 51.000000 47.000000
-20.464000 39.517000 0.997000 50.000000 47.000000 42.000000
-20.477000 39.574000 1.399000 56.000000 59.000000 50.000000
-20.471000 39.672000 1.231000 56.000000 55.000000 51.000000
-20.468000 39.634000 1.139000 52.000000 51.000000 49.000000
-20.480000 39.525000 1.487000 56.000000 57.000000 49.000000
-20.464000 39.559000 1.008000 50.000000 47.000000 42.000000
-20.474000 39.559000 1.324000 54.000000 57.000000 50.000000
-20.463000 39.518000 0.966000 52.000000 49.000000 42.000000
-20.466000 39.470000 1.055000 49.000000 48.000000 44.000000
-20.474000 39.617000 1.308000 58.000000 59.000000 51.000000
-20.462000 39.728000 0.937000 61.000000 57.000000 48.000000
-20.473000 39.632000 1.273000 55.000000 56.000000 50.000000
-20.467000 39.679000 1.086000 51.000000 50.000000 46.000000
-20.476000 39.547000 1.356000 57.000000 58.000000 53.000000
-20.471000 39.656000 1.214000 54.000000 53.000000 49.000000
-20.463000 39.603000 0.964000 55.000000 52.000000 45.000000
-20.477000 39.548000 1.407000 54.000000 56.000000 51.000000
-20.479000 39.549000 1.464000 56.000000 57.000000 49.000000
-20.465000 39.705000 1.037000 48.000000 47.000000 42.000000
-20.462000 39.645000 0.942000 53.000000 53.000000 45.000000
-20.462000 39.680000 0.942000 56.000000 51.000000 45.000000
-20.470000 39.664000 1.198000 53.000000 52.000000 50.000000
-20.472000 39.613000 1.234000 54.000000 53.000000 51.000000
-20.463000 39.790000 0.964000 61.000000 56.000000 52.000000
-20.469000 39.613000 1.168000 51.000000 50.000000 48.000000
-20.462000 39.783000 0.955000 53.000000 52.000000 47.000000
-20.473000 39.597000 1.278000 56.000000 55.000000 50.000000
-20.464000 39.630000 1.010000 50.000000 49.000000 45.000000
-20.474000 39.527000 1.298000 54.000000 55.000000 49.000000
-20.479000 39.577000 1.457000 56.000000 57.000000 49.000000
-20.469000 39.496000 1.169000 54.000000 53.000000 49.000000
-20.468000 39.467000 1.131000 52.000000 51.000000 47.000000
-20.477000 39.563000 1.413000 56.000000 57.000000 49.000000
