-18.909000 41.219000 1.604000 141.000000 141.000000 129.000000
-19.096000 41.219000 1.864000 143.000000 146.000000 137.000000
-18.818000 41.220000 1.901000 148.000000 149.000000 141.000000
-19.004000 41.219000 1.786000 139.000000 142.000000 133.000000
-19.008000 41.219000 1.942000 150.000000 152.000000 149.000000
-18.926000 41.219000 1.665000 139.000000 141.000000 130.000000
-19.073000 41.219000 2.028000 76.000000 73.000000 66.000000
-19.069000 41.219000 1.971000 147.000000 152.000000 145.000000
-18.885000 41.219000 1.566000 141.000000 141.000000 133.000000
-19.164000 41.218000 1.925000 143.000000 143.000000 141.000000
-18.896000 41.219000 1.668000 140.000000 142.000000 131.000000
-18.806000 41.220000 1.951000 150.000000 152.000000 141.000000
-18.953000 41.219000 2.018000 89.000000 88.000000 84.000000
-18.984000 41.219000 1.632000 140.000000 142.000000 131.000000
-18.904000 41.219000 1.660000 140.000000 141.000000 133.000000
-19.084000 41.219000 1.857000 144.000000 147.000000 140.000000
-18.996000 41.219000 1.642000 141.000000 143.000000 132.000000
-18.860000 41.219000 1.681000 140.000000 141.000000 133.000000
-19.092000 41.219000 1.851000 144.000000 147.000000 140.000000
-18.832000 41.220000 1.768000 144.000000 145.000000 139.000000
-18.790000 41.220000 1.975000 149.000000 153.000000 139.000000
-19.146000 41.219000 2.038000 66.000000 69.000000 60.000000
-19.132000 41.218000 1.895000 143.000000 144.000000 138.000000
-18.922000 41.219000 1.807000 142.000000 145.000000 138.000000
-18.710000 41.220000 1.939000 149.000000 151.000000 138.000000
-18.864000 41.219000 1.781000 142.000000 145.000000 136.000000
-19.209000 41.218000 1.973000 140.000000 140.000000 140.000000
-18.820000 41.220000 2.000000 151.000000 151.000000 143.000000
-18.913000 41.219000 1.728000 143.000000 143.000000 133.000000
-19.030000 41.219000 1.673000 139.000000 145.000000 135.000000
-19.000000 41.219000 1.985000 151.000000 154.000000 145.000000
-18.817000 41.220000 1.754000 142.000000 143.000000 135.000000
-18.954000 41.219000 1.648000 140.000000 141.000000 133.000000
-18.921000 41.219000 1.850000 145.000000 147.000000 142.000000
-18.948000 41.219000 1.528000 139.000000 145.000000 135.000000
-19.115000 41.218000 1.853000 142.000000 145.000000 138.000000
-18.866000 41.219000 1.722000 144.000000 144.000000 136.000000
-18.702000 41.220000 1.860000 143.000000 144.000000 138.000000
-19.093000 41.218000 1.754000 140.000000 143.000000 134.000000
-18.817000 41.220000 1.899000 148.000000 149.000000 141.000000
-18.794000 41.220000 1.852000 147.000000 148.000000 143.000000
-18.957000 41.219000 1.600000 141.000000 143.000000 130.000000
-18.960000 41.219000 1.589000 140.000000 142.000000 131.000000
-18.649000 41.221000 1.977000 151.000000 153.000000 139.000000
-18.606000 41.221000 1.997000 150.000000 153.000000 136.000000
-18.918000 41.219000 1.845000 145.000000 147.000000 142.000000
-19.105000 41.219000 1.882000 145.000000 148.000000 139.000000
-18.668000 41.221000 1.934000 147.000000 149.000000 138.000000
-19.087000 41.219000 1.973000 147.000000 152.000000 148.000000
-18.906000 41.219000 1.655000 139.000000 140.000000 132.000000
-19.014000 41.219000 2.040000 147.000000 141.000000 105.000000
-19.088000 41.219000 1.912000 146.000000 151.000000 145.000000
-18.829000 41.219000 1.629000 140.000000 142.000000 131.000000
-18.741000 41.220000 1.787000 144.000000 146.000000 141.000000
-18.905000 41.219000 1.648000 139.000000 140.000000 132.000000
-18.934000 41.220000 1.985000 151.000000 154.000000 143.000000
-19.035000 41.219000 2.045000 147.000000 135.000000 111.000000
-19.099000 41.219000 1.880000 146.000000 147.000000 139.000000
-18.687000 41.220000 1.847000 144.000000 145.000000 140.000000
-18.946000 41.219000 1.859000 145.000000 147.000000 142.000000
-18.982000 41.219000 1.841000 142.000000 147.000000 140.000000
-18.618000 41.221000 2.004000 151.000000 151.000000 139.000000
-18.827000 41.220000 1.920000 150.000000 151.000000 143.000000
-19.079000 41.219000 2.044000 145.000000 130.000000 107.000000
-19.091000 41.219000 1.897000 146.000000 149.000000 142.000000
-19.054000 41.219000 1.946000 147.000000 151.000000 150.000000
-19.085000 41.219000 1.895000 146.000000 149.000000 142.000000
-19.078000 41.219000 1.927000 146.000000 151.000000 145.000000
-18.917000 41.219000 1.911000 150.000000 151.000000 146.000000
-18.879000 41.219000 1.742000 144.000000 144.000000 136.000000
-18.971000 41.219000 1.563000 140.000000 143.000000 132.000000
-19.203000 41.218000 1.959000 141.000000 141.000000 139.000000
-18.865000 41.220000 1.859000 147.000000 148.000000 143.000000
-18.858000 41.219000 1.692000 141.000000 142.000000 134.000000
-18.914000 41.219000 1.585000 142.000000 144.000000 130.000000
-18.728000 41.220000 1.832000 143.000000 143.000000 141.000000
-18.632000 41.221000 1.999000 149.000000 151.000000 140.000000
-18.920000 41.219000 1.527000 139.000000 145.000000 131.000000
-19.022000 41.219000 1.816000 139.000000 144.000000 138.000000
-18.890000 41.219000 1.872000 147.000000 149.000000 146.000000
-18.889000 41.219000 1.650000 139.000000 140.000000 132.000000
-18.654000 41.221000 1.954000 149.000000 151.000000 137.000000
-19.001000 41.219000 2.033000 194.000000 187.000000 169.000000
-18.942000 41.219000 1.768000 141.000000 142.000000 136.000000
-19.040000 41.218000 1.651000 141.000000 142.000000 134.000000
-18.995000 41.219000 1.940000 150.000000 152.000000 149.000000
-18.791000 41.220000 1.800000 144.000000 146.000000 141.000000
-18.904000 41.219000 1.852000 144.000000 146.000000 141.000000
-18.965000 41.219000 1.861000 143.000000 148.000000 141.000000
-18.973000 41.219000 1.898000 148.000000 150.000000 147.000000
-18.873000 41.219000 1.706000 144.000000 144.000000 136.000000
-18.983000 41.219000 2.034000 188.000000 181.000000 165.000000
-18.984000 41.219000 1.669000 141.000000 143.000000 132.000000
-19.050000 41.219000 1.768000 141.000000 144.000000 135.000000
-18.646000 41.221000 1.956000 149.000000 151.000000 137.000000
-18.988000 41.219000 1.656000 141.000000 143.000000 132.000000
-18.818000 41.220000 1.918000 149.000000 150.000000 142.000000
-18.733000 41.220000 1.971000 149.000000 151.000000 138.000000
-19.144000 41.218000 1.902000 141.000000 144.000000 137.000000
-19.196000 41.218000 1.948000 140.000000 140.000000 138.000000
-18.773000 41.220000 1.909000 149.000000 151.000000 138.000000
-19.054000 41.219000 1.821000 140.000000 146.000000 136.000000
-19.104000 41.219000 1.854000 144.000000 147.000000 140.000000
-19.073000 41.219000 1.913000 147.000000 149.000000 144.000000
-18.905000 41.219000 1.837000 145.000000 147.000000 142.000000
-18.965000 41.219000 1.982000 151.000000 154.000000 143.000000
-18.715000 41.220000 1.915000 147.000000 149.000000 136.000000
-18.681000 41.221000 1.938000 147.000000 149.000000 138.000000
-19.123000 41.218000 1.878000 142.000000 143.000000 135.000000
-18.806000 41.220000 1.885000 149.000000 150.000000 142.000000
-18.829000 41.220000 1.769000 144.000000 145.000000 139.000000
-18.737000 41.220000 1.941000 149.000000 151.000000 138.000000
-18.846000 41.220000 1.777000 143.000000 144.000000 138.000000
-18.702000 41.220000 1.920000 145.000000 147.000000 134.000000
-18.911000 41.220000 1.992000 149.000000 152.000000 141.000000
-19.072000 41.219000 1.890000 146.000000 149.000000 142.000000
-18.883000 41.219000 1.570000 142.000000 142.000000 134.000000
-18.830000 41.220000 1.799000 143.000000 145.000000 140.000000
-18.960000 41.219000 1.697000 139.000000 142.000000 133.000000
-18.944000 41.219000 1.638000 139.000000 142.000000 133.000000
-18.974000 41.219000 1.862000 143.000000 148.000000 141.000000
-18.639000 41.221000 2.002000 145.000000 146.000000 138.000000
-18.923000 41.220000 2.011000 122.000000 121.000000 116.000000
-18.687000 41.220000 1.911000 145.000000 147.000000 136.000000
-18.615000 41.221000 1.965000 151.000000 154.000000 137.000000
-19.003000 41.219000 1.778000 141.000000 144.000000 135.000000
-19.033000 41.219000 1.987000 154.000000 155.000000 149.000000
-19.024000 41.218000 1.634000 141.000000 142.000000 134.000000
-19.001000 41.219000 1.642000 140.000000 142.000000 131.000000
-19.080000 41.219000 2.022000 34.000000 36.000000 31.000000
-19.279000 41.218000 2.027000 113.000000 108.000000 102.000000
-18.910000 41.219000 1.596000 141.000000 143.000000 132.000000
-18.961000 41.219000 1.662000 140.000000 141.000000 133.000000
-18.799000 41.220000 2.020000 105.000000 106.000000 98.000000
-18.594000 41.221000 1.976000 150.000000 153.000000 134.000000
-19.118000 41.219000 2.033000 80.000000 74.000000 60.000000
-19.040000 41.219000 2.042000 148.000000 136.000000 112.000000
-19.231000 41.218000 1.999000 138.000000 140.000000 137.000000
-18.976000 41.219000 1.608000 140.000000 142.000000 131.000000
-19.059000 41.219000 1.939000 146.000000 151.000000 147.000000
-19.063000 41.219000 1.970000 148.000000 153.000000 146.000000
-18.900000 41.219000 1.632000 141.000000 142.000000 134.000000
-18.828000 41.220000 1.770000 144.000000 145.000000 139.000000
-18.939000 41.219000 1.730000 141.000000 144.000000 135.000000
-19.055000 41.219000 1.951000 150.000000 152.000000 151.000000
-18.690000 41.220000 1.951000 148.000000 150.000000 137.000000
-19.043000 41.218000 1.675000 140.000000 143.000000 134.000000
-18.702000 41.220000 1.828000 143.000000 145.000000 140.000000
-19.163000 41.219000 1.978000 140.000000 142.000000 139.000000
-18.688000 41.221000 1.962000 149.000000 151.000000 137.000000
-19.100000 41.218000 1.790000 141.000000 142.000000 134.000000
-19.052000 41.218000 1.674000 139.000000 142.000000 133.000000
-18.562000 41.221000 2.046000 219.000000 215.000000 204.000000
-19.210000 41.218000 1.985000 139.000000 141.000000 140.000000
-18.748000 41.220000 1.949000 150.000000 152.000000 139.000000
-18.799000 41.220000 1.774000 145.000000 146.000000 140.000000
-19.072000 41.219000 1.888000 146.000000 149.000000 142.000000
-18.956000 41.219000 1.968000 153.000000 155.000000 144.000000
-18.613000 41.221000 1.988000 150.000000 152.000000 138.000000
-19.058000 41.218000 1.685000 141.000000 142.000000 136.000000
-19.203000 41.218000 1.961000 141.000000 141.000000 139.000000
-19.155000 41.218000 1.935000 142.000000 142.000000 140.000000
-18.892000 41.220000 2.038000 196.000000 187.000000 170.000000
-18.846000 41.220000 1.787000 143.000000 145.000000 140.000000
-19.195000 41.218000 1.933000 140.000000 142.000000 137.000000
-19.077000 41.219000 1.995000 150.000000 152.000000 147.000000
-18.557000 41.221000 2.036000 29.000000 29.000000 29.000000
-18.866000 41.219000 1.557000 141.000000 143.000000 132.000000
-18.706000 41.220000 1.939000 148.000000 150.000000 137.000000
-18.982000 41.219000 1.684000 139.000000 141.000000 130.000000
-19.125000 41.219000 1.926000 143.000000 144.000000 139.000000
-19.192000 41.218000 1.890000 138.000000 143.000000 137.000000
-18.936000 41.219000 1.863000 147.000000 148.000000 143.000000
-18.786000 41.220000 1.737000 145.000000 147.000000 136.000000
-18.945000 41.219000 1.728000 140.000000 143.000000 134.000000
-19.170000 41.219000 2.044000 189.000000 185.000000 174.000000
-19.055000 41.219000 1.760000 142.000000 145.000000 136.000000
-18.940000 41.219000 1.714000 143.000000 143.000000 135.000000
-18.617000 41.221000 1.981000 150.000000 152.000000 138.000000
-19.015000 41.219000 1.704000 138.000000 144.000000 134.000000
-18.954000 41.219000 1.874000 148.000000 150.000000 145.000000
-18.876000 41.220000 1.877000 149.000000 150.000000 144.000000
-18.719000 41.220000 1.962000 150.000000 152.000000 139.000000
-19.010000 41.219000 1.612000 141.000000 142.000000 134.000000
-19.052000 41.219000 2.015000 77.000000 78.000000 72.000000
-19.071000 41.219000 1.915000 147.000000 149.000000 144.000000
-18.959000 41.219000 1.562000 140.000000 143.000000 134.000000
-18.861000 41.219000 1.616000 140.000000 142.000000 129.000000
-18.995000 41.219000 1.980000 152.000000 155.000000 146.000000
-18.770000 41.220000 1.806000 143.000000 146.000000 139.000000
-18.953000 41.219000 1.787000 137.000000 142.000000 136.000000
-18.959000 41.219000 1.539000 139.000000 145.000000 135.000000
-19.059000 41.219000 1.803000 140.000000 143.000000 134.000000
-18.906000 41.220000 1.948000 149.000000 152.000000 143.000000
-18.620000 41.221000 2.014000 126.000000 126.000000 116.000000
-18.801000 41.220000 1.990000 150.000000 152.000000 141.000000
-18.569000 41.221000 2.024000 106.000000 106.000000 98.000000
-18.765000 41.220000 1.918000 148.000000 152.000000 138.000000
-18.720000 41.221000 2.035000 32.000000 32.000000 24.000000
-18.893000 41.219000 1.657000 141.000000 142.000000 134.000000
-19.089000 41.219000 1.918000 144.000000 149.000000 145.000000
-18.795000 41.220000 1.858000 148.000000 149.000000 144.000000
-18.954000 41.219000 1.878000 147.000000 149.000000 146.000000
-18.958000 41.219000 1.604000 140.000000 142.000000 129.000000
-18.898000 41.219000 1.774000 139.000000 145.000000 135.000000
-19.001000 41.219000 1.618000 141.000000 142.000000 134.000000
-18.930000 41.219000 1.819000 141.000000 146.000000 139.000000
-18.916000 41.220000 1.966000 148.000000 154.000000 142.000000
-18.807000 41.220000 1.889000 148.000000 149.000000 141.000000
-18.935000 41.219000 1.693000 140.000000 141.000000 133.000000
-18.828000 41.219000 1.615000 140.000000 142.000000 131.000000
-19.191000 41.218000 1.924000 141.000000 143.000000 138.000000
-19.043000 41.219000 1.763000 141.000000 144.000000 135.000000
-18.754000 41.220000 1.846000 144.000000 145.000000 140.000000
-19.162000 41.218000 1.846000 141.000000 143.000000 138.000000
-19.037000 41.219000 2.038000 167.000000 156.000000 134.000000
-19.022000 41.219000 1.793000 140.000000 143.000000 134.000000
-18.909000 41.219000 1.609000 141.000000 141.000000 129.000000
-18.575000 41.221000 2.035000 23.000000 22.000000 17.000000
-19.089000 41.219000 1.841000 143.000000 146.000000 137.000000
-18.949000 41.219000 1.846000 143.000000 148.000000 141.000000
-18.962000 41.219000 1.545000 139.000000 145.000000 135.000000
-19.235000 41.218000 1.968000 138.000000 142.000000 141.000000
-18.764000 41.220000 1.758000 144.000000 145.000000 139.000000
-18.784000 41.220000 1.952000 149.000000 151.000000 138.000000
-18.801000 41.220000 1.704000 143.000000 144.000000 136.000000
-18.583000 41.221000 2.012000 140.000000 142.000000 129.000000
-18.948000 41.219000 1.940000 150.000000 151.000000 146.000000
-18.840000 41.220000 2.003000 147.000000 149.000000 138.000000
-18.891000 41.220000 2.041000 161.000000 153.000000 132.000000
-18.950000 41.219000 1.578000 140.000000 143.000000 134.000000
-18.874000 41.219000 1.772000 142.000000 145.000000 136.000000
-18.958000 41.219000 1.715000 141.000000 142.000000 134.000000
-19.033000 41.219000 2.023000 36.000000 36.000000 34.000000
-18.887000 41.219000 1.581000 140.000000 142.000000 129.000000
-19.001000 41.219000 1.878000 147.000000 148.000000 142.000000
-19.253000 41.218000 2.023000 119.000000 115.000000 106.000000
-18.714000 41.220000 1.855000 143.000000 144.000000 138.000000
-18.843000 41.219000 1.636000 142.000000 143.000000 135.000000
-18.957000 41.219000 1.955000 152.000000 153.000000 145.000000
-18.922000 41.220000 1.980000 146.000000 157.000000 141.000000
-18.876000 41.220000 1.950000 150.000000 152.000000 141.000000
-19.135000 41.218000 1.876000 141.000000 144.000000 137.000000
-19.095000 41.219000 1.895000 145.000000 148.000000 141.000000
-18.932000 41.219000 1.798000 140.000000 145.000000 138.000000
-18.913000 41.219000 1.675000 140.000000 142.000000 131.000000
-18.970000 41.219000 2.002000 146.000000 147.000000 139.000000
-18.939000 41.220000 2.012000 120.000000 119.000000 115.000000
-18.704000 41.220000 1.884000 143.000000 144.000000 139.000000
-19.045000 41.219000 1.953000 150.000000 152.000000 149.000000
-18.867000 41.220000 1.908000 149.000000 150.000000 144.000000
-19.137000 41.218000 1.906000 143.000000 144.000000 138.000000
-18.714000 41.220000 1.987000 150.000000 151.000000 137.000000
-19.105000 41.219000 1.904000 147.000000 148.000000 143.000000
-18.953000 41.219000 1.835000 142.000000 147.000000 140.000000
-19.009000 41.219000 1.999000 148.000000 151.000000 140.000000
-19.074000 41.218000 1.726000 138.000000 144.000000 132.000000
-18.727000 41.220000 2.016000 117.000000 117.000000 109.000000
-18.770000 41.220000 1.979000 148.000000 150.000000 139.000000
-18.910000 41.219000 1.691000 141.000000 143.000000 132.000000
-19.010000 41.219000 1.619000 141.000000 142.000000 134.000000
-18.926000 41.219000 1.552000 138.000000 144.000000 132.000000
-18.770000 41.220000 1.766000 144.000000 145.000000 139.000000
-18.939000 41.219000 1.688000 139.000000 142.000000 133.000000
-18.742000 41.220000 1.915000 148.000000 150.000000 137.000000
-18.756000 41.220000 1.734000 143.000000 144.000000 136.000000
-19.148000 41.218000 1.917000 142.000000 144.000000 139.000000
-19.159000 41.218000 1.927000 143.000000 143.000000 141.000000
-18.783000 41.220000 1.890000 148.000000 148.000000 140.000000
-18.874000 41.219000 1.562000 141.000000 143.000000 132.000000
-19.065000 41.219000 2.002000 141.000000 140.000000 135.000000
-18.720000 41.220000 1.976000 149.000000 149.000000 137.000000
-18.907000 41.220000 1.982000 148.000000 154.000000 142.000000
-18.927000 41.219000 1.599000 141.000000 143.000000 132.000000
-19.216000 41.218000 1.939000 137.000000 142.000000 138.000000
-19.062000 41.219000 1.841000 140.000000 146.000000 134.000000
-18.818000 41.220000 1.827000 146.000000 147.000000 142.000000
-18.975000 41.219000 1.867000 144.000000 149.000000 142.000000
-18.962000 41.219000 1.981000 151.000000 154.000000 143.000000
-18.988000 41.219000 1.622000 140.000000 142.000000 131.000000
-19.131000 41.219000 1.962000 142.000000 143.000000 138.000000
-19.091000 41.219000 2.013000 101.000000 102.000000 97.000000
-19.017000 41.219000 1.650000 141.000000 143.000000 132.000000
-18.960000 41.219000 1.981000 151.000000 154.000000 143.000000
-18.945000 41.219000 1.792000 138.000000 143.000000 136.000000
-19.119000 41.219000 2.053000 153.000000 142.000000 120.000000
-19.106000 41.218000 1.807000 141.000000 144.000000 135.000000
-18.839000 41.219000 1.737000 142.000000 145.000000 138.000000
-19.068000 41.219000 1.820000 140.000000 146.000000 134.000000
-18.927000 41.219000 1.761000 143.000000 143.000000 135.000000
-18.710000 41.220000 1.857000 142.000000 143.000000 137.000000
-18.917000 41.220000 2.050000 199.000000 189.000000 162.000000
-18.879000 41.220000 1.874000 148.000000 149.000000 143.000000
-18.995000 41.219000 2.015000 107.000000 106.000000 101.000000
-18.939000 41.220000 2.051000 196.000000 186.000000 177.000000
-19.046000 41.219000 1.935000 146.000000 151.000000 147.000000
-19.134000 41.219000 1.963000 142.000000 143.000000 138.000000
-18.957000 41.219000 1.939000 151.000000 152.000000 147.000000
-18.670000 41.221000 2.029000 40.000000 39.000000 35.000000
-19.157000 41.219000 1.990000 138.000000 143.000000 139.000000
-19.134000 41.219000 1.943000 142.000000 143.000000 138.000000
-18.690000 41.220000 1.828000 143.000000 145.000000 140.000000
-18.991000 41.219000 1.765000 139.000000 142.000000 133.000000
-18.686000 41.221000 1.986000 148.000000 152.000000 135.000000
-19.068000 41.218000 1.702000 140.000000 141.000000 133.000000
-19.148000 41.218000 1.909000 141.000000 143.000000 138.000000
-18.974000 41.219000 1.870000 145.000000 150.000000 143.000000
-18.903000 41.220000 1.993000 152.000000 154.000000 143.000000
-18.809000 41.220000 1.716000 142.000000 143.000000 135.000000
-18.944000 41.219000 1.864000 147.000000 149.000000 144.000000
-18.951000 41.219000 2.010000 122.000000 121.000000 117.000000
-18.875000 41.219000 1.592000 142.000000 142.000000 132.000000
-18.927000 41.219000 1.724000 144.000000 144.000000 134.000000
-18.998000 41.219000 1.615000 141.000000 142.000000 134.000000
-19.083000 41.219000 1.969000 148.000000 152.000000 151.000000
-18.813000 41.220000 1.863000 148.000000 149.000000 144.000000
-19.060000 41.219000 2.043000 144.000000 129.000000 108.000000
-19.089000 41.219000 1.827000 141.000000 147.000000 137.000000
-18.960000 41.219000 1.644000 140.000000 141.000000 133.000000
-18.817000 41.220000 2.026000 34.000000 33.000000 29.000000
-18.820000 41.220000 1.822000 146.000000 147.000000 142.000000
-18.818000 41.220000 1.882000 148.000000 149.000000 143.000000
-18.864000 41.220000 1.891000 148.000000 149.000000 144.000000
-19.013000 41.219000 1.966000 153.000000 154.000000 149.000000
-19.014000 41.219000 1.926000 149.000000 151.000000 148.000000
-18.982000 41.219000 1.992000 151.000000 157.000000 145.000000
-18.978000 41.219000 2.041000 141.000000 132.000000 99.000000
-18.863000 41.220000 1.893000 148.000000 149.000000 144.000000
-18.975000 41.219000 1.948000 151.000000 152.000000 147.000000
-18.889000 41.219000 1.814000 145.000000 146.000000 140.000000
-18.751000 41.220000 1.775000 143.000000 145.000000 140.000000
-18.674000 41.220000 1.877000 146.000000 147.000000 139.000000
-19.075000 41.219000 1.860000 145.000000 148.000000 141.000000
-18.865000 41.220000 1.884000 149.000000 150.000000 145.000000
-18.988000 41.219000 1.861000 143.000000 148.000000 141.000000
-19.064000 41.219000 1.881000 146.000000 149.000000 142.000000
-18.832000 41.220000 1.864000 148.000000 149.000000 144.000000
-19.006000 41.219000 1.822000 140.000000 145.000000 139.000000
-19.035000 41.219000 1.977000 151.000000 154.000000 147.000000
-18.871000 41.219000 1.596000 142.000000 142.000000 130.000000
-19.099000 41.219000 1.968000 149.000000 153.000000 152.000000
-18.728000 41.220000 2.036000 124.000000 123.000000 118.000000
-18.717000 41.220000 1.911000 147.000000 149.000000 138.000000
-19.197000 41.218000 2.013000 140.000000 140.000000 132.000000
-18.807000 41.220000 1.687000 139.000000 142.000000 131.000000
-18.628000 41.221000 1.922000 148.000000 151.000000 140.000000
-18.963000 41.219000 2.003000 147.000000 148.000000 140.000000
-19.122000 41.218000 1.872000 142.000000 145.000000 138.000000
-19.189000 41.219000 2.044000 198.000000 195.000000 180.000000
-18.994000 41.219000 1.847000 142.000000 147.000000 140.000000
-18.998000 41.219000 1.988000 151.000000 154.000000 145.000000
-18.844000 41.219000 1.593000 140.000000 142.000000 131.000000
-18.647000 41.221000 1.938000 149.000000 151.000000 140.000000
-18.694000 41.220000 1.889000 144.000000 145.000000 139.000000
-18.728000 41.220000 1.954000 149.000000 151.000000 138.000000
-19.173000 41.219000 2.034000 67.000000 72.000000 68.000000
-18.818000 41.220000 1.959000 149.000000 152.000000 141.000000
-18.942000 41.219000 1.866000 146.000000 148.000000 143.000000
-19.137000 41.219000 1.977000 140.000000 142.000000 137.000000
-19.074000 41.219000 1.992000 150.000000 152.000000 147.000000
-19.087000 41.219000 1.855000 144.000000 147.000000 140.000000
-18.850000 41.220000 1.935000 150.000000 152.000000 141.000000
-18.961000 41.219000 1.974000 152.000000 155.000000 146.000000
-19.174000 41.218000 1.874000 139.000000 144.000000 137.000000
-18.734000 41.220000 1.901000 145.000000 146.000000 138.000000
-18.692000 41.220000 1.867000 145.000000 146.000000 140.000000
-19.091000 41.219000 1.910000 147.000000 152.000000 146.000000
-18.766000 41.220000 1.981000 148.000000 150.000000 139.000000
-18.916000 41.219000 1.885000 148.000000 148.000000 146.000000
-18.849000 41.219000 1.714000 143.000000 144.000000 136.000000
-19.062000 41.219000 1.827000 140.000000 146.000000 134.000000
-19.087000 41.219000 1.798000 142.000000 143.000000 135.000000
-18.819000 41.219000 1.641000 142.000000 143.000000 135.000000
-19.031000 41.219000 1.789000 141.000000 144.000000 135.000000
-18.970000 41.219000 2.036000 192.000000 183.000000 176.000000
-18.785000 41.220000 1.872000 148.000000 149.000000 144.000000
-19.160000 41.218000 1.855000 140.000000 142.000000 137.000000
-18.917000 41.219000 1.582000 141.000000 143.000000 129.000000
-18.793000 41.220000 1.795000 144.000000 146.000000 141.000000
-18.948000 41.219000 1.813000 140.000000 145.000000 138.000000
-18.647000 41.221000 1.926000 149.000000 151.000000 138.000000
-18.717000 41.220000 1.933000 148.000000 150.000000 137.000000
-18.903000 41.219000 1.524000 139.000000 146.000000 130.000000
-18.660000 41.221000 1.973000 151.000000 154.000000 137.000000
-18.856000 41.219000 1.793000 143.000000 146.000000 139.000000
-18.753000 41.220000 1.830000 142.000000 144.000000 139.000000
-18.801000 41.220000 1.867000 148.000000 149.000000 144.000000
-18.966000 41.219000 1.857000 143.000000 148.000000 141.000000
-18.768000 41.220000 1.747000 145.000000 145.000000 137.000000
-19.044000 41.219000 1.746000 141.000000 144.000000 135.000000
-19.162000 41.219000 2.040000 101.000000 104.000000 95.000000
-18.812000 41.220000 1.888000 148.000000 149.000000 143.000000
-18.870000 41.219000 1.556000 141.000000 143.000000 132.000000
-18.784000 41.220000 1.945000 149.000000 151.000000 138.000000
-19.214000 41.218000 2.036000 61.000000 62.000000 54.000000
-18.874000 41.219000 1.713000 143.000000 143.000000 135.000000
-18.933000 41.219000 1.598000 140.000000 142.000000 131.000000
-19.275000 41.218000 2.036000 57.000000 58.000000 53.000000
-18.970000 41.219000 1.574000 140.000000 144.000000 130.000000
-18.836000 41.220000 1.804000 144.000000 146.000000 141.000000
-18.925000 41.219000 1.477000 143.000000 146.000000 137.000000
-18.920000 41.219000 1.696000 141.000000 143.000000 132.000000
-18.733000 41.220000 2.025000 55.000000 55.000000 45.000000
-18.938000 41.219000 1.509000 141.000000 144.000000 135.000000
-19.033000 41.218000 1.644000 141.000000 142.000000 134.000000
-18.966000 41.219000 1.757000 141.000000 142.000000 136.000000
-19.183000 41.218000 1.937000 141.000000 142.000000 137.000000
-18.774000 41.220000 1.874000 147.000000 148.000000 143.000000
-18.911000 41.220000 2.037000 184.000000 177.000000 161.000000
-18.952000 41.219000 1.822000 139.000000 144.000000 137.000000
-18.849000 41.220000 1.969000 150.000000 152.000000 141.000000
-18.871000 41.219000 1.580000 140.000000 142.000000 131.000000
-18.591000 41.221000 2.009000 148.000000 150.000000 136.000000
-18.915000 41.219000 1.918000 150.000000 151.000000 146.000000
-19.151000 41.219000 2.001000 137.000000 142.000000 135.000000
-18.917000 41.219000 1.811000 142.000000 145.000000 138.000000
-18.768000 41.220000 1.722000 144.000000 144.000000 136.000000
-19.086000 41.218000 1.734000 141.000000 142.000000 134.000000
-18.906000 41.219000 1.622000 142.000000 142.000000 132.000000
-19.034000 41.219000 1.849000 142.000000 147.000000 140.000000
-19.212000 41.218000 1.987000 139.000000 141.000000 140.000000
-19.124000 41.219000 1.900000 142.000000 143.000000 137.000000
-19.271000 41.218000 2.023000 119.000000 119.000000 109.000000
-19.132000 41.219000 1.910000 143.000000 144.000000 138.000000
-19.167000 41.218000 1.853000 140.000000 142.000000 137.000000
-19.273000 41.218000 2.033000 71.000000 67.000000 64.000000
-19.049000 41.219000 1.768000 141.000000 144.000000 135.000000
-19.063000 41.219000 2.033000 157.000000 151.000000 139.000000
-18.884000 41.219000 1.538000 138.000000 145.000000 129.000000
-18.991000 41.219000 1.837000 142.000000 147.000000 140.000000
-19.092000 41.219000 1.820000 140.000000 146.000000 136.000000
-18.898000 41.220000 1.900000 148.000000 149.000000 143.000000
-19.010000 41.219000 1.891000 148.000000 149.000000 143.000000
-18.901000 41.219000 1.718000 143.000000 143.000000 133.000000
-18.961000 41.219000 1.585000 141.000000 143.000000 132.000000
-18.954000 41.219000 1.690000 140.000000 143.000000 134.000000
-19.221000 41.218000 1.980000 139.000000 139.000000 139.000000
-18.654000 41.221000 2.000000 147.000000 153.000000 139.000000
-18.874000 41.220000 1.919000 150.000000 152.000000 141.000000
-18.837000 41.220000 2.033000 59.000000 56.000000 51.000000
-18.670000 41.220000 1.870000 146.000000 147.000000 139.000000
-19.145000 41.218000 1.875000 141.000000 144.000000 137.000000
-18.775000 41.220000 1.717000 144.000000 144.000000 134.000000
-19.151000 41.218000 1.886000 142.000000 145.000000 138.000000
-19.117000 41.218000 1.814000 141.000000 144.000000 135.000000
-18.823000 41.219000 1.698000 141.000000 143.000000 132.000000
-18.723000 41.220000 1.937000 149.000000 151.000000 138.000000
-18.810000 41.220000 1.977000 149.000000 151.000000 138.000000
-18.864000 41.219000 1.599000 141.000000 143.000000 130.000000
-19.077000 41.219000 1.986000 148.000000 153.000000 147.000000
-18.579000 41.221000 2.007000 147.000000 149.000000 135.000000
-18.965000 41.219000 1.657000 141.000000 142.000000 134.000000
-18.758000 41.220000 1.841000 144.000000 145.000000 140.000000
-18.998000 41.219000 1.665000 141.000000 143.000000 132.000000
-18.829000 41.220000 1.769000 144.000000 145.000000 139.000000
-18.792000 41.220000 2.017000 118.000000 120.000000 109.000000
-19.137000 41.219000 1.953000 142.000000 143.000000 138.000000
-18.973000 41.219000 1.856000 142.000000 147.000000 140.000000
-19.101000 41.219000 1.920000 146.000000 148.000000 145.000000
-18.779000 41.220000 1.976000 150.000000 152.000000 141.000000
-19.064000 41.218000 1.694000 140.000000 141.000000 133.000000
-18.977000 41.219000 1.659000 140.000000 142.000000 131.000000
-19.165000 41.218000 1.930000 143.000000 143.000000 141.000000
-19.025000 41.219000 1.842000 141.000000 146.000000 140.000000
-18.811000 41.220000 1.938000 151.000000 153.000000 142.000000
-18.741000 41.220000 1.992000 149.000000 151.000000 138.000000
-19.019000 41.219000 1.893000 149.000000 150.000000 144.000000
-18.789000 41.220000 2.025000 49.000000 51.000000 48.000000
-18.870000 41.219000 1.615000 142.000000 142.000000 130.000000
-19.135000 41.218000 1.827000 140.000000 143.000000 136.000000
-18.926000 41.219000 1.657000 140.000000 141.000000 133.000000
-19.025000 41.219000 1.720000 141.000000 144.000000 133.000000
-18.941000 41.219000 1.502000 141.000000 144.000000 135.000000
-18.975000 41.219000 2.001000 145.000000 146.000000 138.000000
-19.051000 41.219000 1.776000 141.000000 144.000000 135.000000
-19.129000 41.219000 1.901000 142.000000 143.000000 137.000000
-18.739000 41.220000 1.948000 150.000000 152.000000 139.000000
-18.731000 41.220000 1.818000 142.000000 144.000000 141.000000
-18.934000 41.219000 1.961000 151.000000 153.000000 142.000000
-19.063000 41.219000 1.755000 142.000000 143.000000 137.000000
-18.673000 41.221000 2.049000 143.000000 130.000000 96.000000
-18.897000 41.220000 1.987000 151.000000 153.000000 142.000000
-18.846000 41.220000 1.997000 149.000000 151.000000 138.000000
-18.701000 41.220000 1.942000 147.000000 149.000000 136.000000
-18.804000 41.220000 1.719000 143.000000 143.000000 133.000000
-18.656000 41.221000 1.948000 149.000000 151.000000 138.000000
-18.735000 41.220000 2.016000 117.000000 117.000000 109.000000
-19.074000 41.219000 1.807000 141.000000 144.000000 135.000000
-19.033000 41.219000 1.826000 140.000000 145.000000 139.000000
-18.793000 41.220000 1.787000 143.000000 145.000000 140.000000
-18.637000 41.221000 1.976000 151.000000 154.000000 135.000000
-18.855000 41.220000 1.931000 149.000000 151.000000 140.000000
-18.861000 41.219000 1.748000 142.000000 143.000000 135.000000
-18.905000 41.219000 1.704000 143.000000 145.000000 134.000000
-19.123000 41.219000 1.901000 142.000000 143.000000 137.000000
-18.928000 41.219000 1.706000 143.000000 143.000000 135.000000
-18.977000 41.219000 1.785000 139.000000 142.000000 133.000000
-18.750000 41.220000 1.763000 144.000000 145.000000 139.000000
-18.963000 41.219000 1.912000 149.000000 151.000000 148.000000
-18.908000 41.219000 1.674000 140.000000 142.000000 131.000000
-19.086000 41.219000 1.842000 143.000000 146.000000 137.000000
-18.977000 41.219000 1.716000 140.000000 143.000000 134.000000
-18.952000 41.219000 1.801000 139.000000 145.000000 135.000000
-18.884000 41.219000 1.718000 143.000000 143.000000 133.000000
-19.124000 41.219000 1.946000 142.000000 143.000000 138.000000
-18.732000 41.220000 1.983000 150.000000 150.000000 140.000000
-18.857000 41.220000 1.923000 150.000000 152.000000 141.000000
-19.036000 41.219000 1.787000 141.000000 144.000000 137.000000
-18.840000 41.219000 1.718000 141.000000 144.000000 135.000000
-18.642000 41.221000 1.985000 149.000000 153.000000 138.000000
-19.057000 41.219000 1.779000 142.000000 145.000000 136.000000
-19.155000 41.218000 1.949000 141.000000 141.000000 139.000000
-18.748000 41.220000 1.984000 149.000000 151.000000 140.000000
-18.917000 41.219000 1.514000 140.000000 146.000000 132.000000
-18.896000 41.219000 1.854000 145.000000 147.000000 142.000000
-19.006000 41.219000 1.617000 141.000000 142.000000 134.000000
-19.105000 41.218000 1.765000 140.000000 143.000000 136.000000
-18.895000 41.219000 1.869000 147.000000 149.000000 146.000000
-19.045000 41.219000 1.971000 153.000000 154.000000 148.000000
-18.995000 41.219000 1.707000 138.000000 144.000000 134.000000
-19.022000 41.219000 1.820000 140.000000 145.000000 139.000000
-18.855000 41.220000 1.824000 146.000000 147.000000 142.000000
-18.703000 41.220000 1.960000 148.000000 150.000000 137.000000
-19.140000 41.219000 1.946000 142.000000 143.000000 138.000000
-18.879000 41.219000 1.826000 146.000000 147.000000 142.000000
-19.055000 41.219000 1.975000 148.000000 153.000000 146.000000
-19.289000 41.218000 2.050000 134.000000 116.000000 94.000000
-18.789000 41.220000 1.761000 143.000000 144.000000 139.000000
-18.942000 41.219000 1.876000 148.000000 148.000000 146.000000
-18.833000 41.219000 1.608000 139.000000 143.000000 129.000000
-18.897000 41.219000 1.819000 144.000000 147.000000 140.000000
-18.828000 41.219000 1.618000 140.000000 142.000000 131.000000
-18.949000 41.219000 1.993000 153.000000 155.000000 144.000000
-19.001000 41.219000 1.662000 140.000000 142.000000 131.000000
-18.893000 41.219000 1.515000 140.000000 143.000000 132.000000
-18.749000 41.220000 1.983000 149.000000 151.000000 140.000000
-19.060000 41.219000 1.785000 141.000000 144.000000 137.000000
-19.018000 41.219000 1.639000 140.000000 142.000000 131.000000
-18.789000 41.220000 1.701000 141.000000 142.000000 134.000000
-18.954000 41.219000 1.765000 142.000000 143.000000 137.000000
-18.862000 41.220000 1.962000 150.000000 152.000000 141.000000
-18.677000 41.221000 2.014000 120.000000 122.000000 109.000000
-18.740000 41.220000 1.863000 144.000000 145.000000 140.000000
-19.147000 41.219000 1.961000 143.000000 143.000000 141.000000
-19.169000 41.218000 1.940000 141.000000 141.000000 139.000000
-18.624000 41.221000 2.008000 146.000000 146.000000 136.000000
-18.630000 41.221000 1.974000 151.000000 154.000000 135.000000
-18.720000 41.220000 1.787000 143.000000 146.000000 139.000000
-19.158000 41.218000 1.956000 141.000000 141.000000 139.000000
-18.800000 41.220000 1.913000 149.000000 151.000000 140.000000
-18.966000 41.219000 1.897000 148.000000 150.000000 147.000000
-19.006000 41.219000 1.894000 148.000000 149.000000 143.000000
-19.148000 41.218000 1.916000 142.000000 144.000000 139.000000
-18.999000 41.219000 1.966000 152.000000 153.000000 148.000000
-18.987000 41.219000 1.693000 139.000000 142.000000 131.000000
-19.110000 41.218000 1.812000 141.000000 144.000000 135.000000
-18.628000 41.221000 2.043000 218.000000 210.000000 191.000000
-19.053000 41.219000 1.783000 140.000000 143.000000 136.000000
-18.584000 41.221000 1.995000 151.000000 154.000000 137.000000
-18.930000 41.219000 1.817000 141.000000 146.000000 139.000000
-18.869000 41.219000 1.666000 142.000000 144.000000 133.000000
-18.989000 41.219000 1.760000 141.000000 144.000000 135.000000
-18.889000 41.219000 1.732000 144.000000 144.000000 134.000000
-18.801000 41.220000 1.999000 150.000000 152.000000 141.000000
-19.100000 41.218000 1.820000 142.000000 145.000000 136.000000
-18.991000 41.219000 1.641000 140.000000 142.000000 131.000000
-19.239000 41.218000 1.990000 135.000000 140.000000 136.000000
-18.897000 41.219000 1.889000 149.000000 150.000000 145.000000
-19.051000 41.219000 1.962000 151.000000 153.000000 148.000000
-18.828000 41.220000 2.032000 64.000000 59.000000 53.000000
-19.022000 41.219000 1.976000 153.000000 152.000000 148.000000
-18.942000 41.219000 1.616000 140.000000 142.000000 129.000000
-18.714000 41.220000 1.928000 146.000000 148.000000 135.000000
-18.869000 41.219000 1.804000 144.000000 147.000000 140.000000
-18.981000 41.219000 1.912000 149.000000 151.000000 148.000000
-18.915000 41.219000 1.541000 139.000000 145.000000 131.000000
-18.982000 41.219000 1.824000 140.000000 145.000000 139.000000
-18.913000 41.219000 1.706000 142.000000 144.000000 133.000000
-18.762000 41.220000 1.806000 144.000000 146.000000 141.000000
-18.852000 41.219000 1.596000 140.000000 142.000000 129.000000
-19.140000 41.218000 1.852000 141.000000 144.000000 137.000000
-19.042000 41.219000 1.825000 140.000000 145.000000 138.000000
-18.815000 41.220000 1.781000 144.000000 145.000000 140.000000
-18.821000 41.220000 2.026000 51.000000 50.000000 46.000000
-18.959000 41.219000 1.701000 140.000000 141.000000 133.000000
-18.875000 41.219000 1.822000 146.000000 147.000000 142.000000
-18.689000 41.221000 2.039000 108.000000 99.000000 100.000000
-18.861000 41.219000 1.773000 142.000000 145.000000 136.000000
-18.691000 41.221000 2.022000 86.000000 85.000000 80.000000
-18.803000 41.220000 1.887000 149.000000 150.000000 142.000000
-18.711000 41.220000 1.906000 146.000000 148.000000 137.000000
-18.962000 41.219000 1.950000 152.000000 153.000000 147.000000
-18.867000 41.220000 1.983000 150.000000 152.000000 139.000000
-19.052000 41.219000 1.894000 147.000000 150.000000 143.000000
-18.651000 41.221000 2.028000 42.000000 43.000000 38.000000
-18.949000 41.219000 1.853000 145.000000 148.000000 141.000000
-18.626000 41.221000 2.035000 24.000000 27.000000 20.000000
-18.988000 41.219000 1.882000 147.000000 147.000000 145.000000
-18.885000 41.219000 1.764000 143.000000 144.000000 136.000000
-18.836000 41.220000 2.007000 132.000000 134.000000 123.000000
-19.160000 41.219000 2.050000 180.000000 171.000000 156.000000
-18.824000 41.219000 1.627000 140.000000 142.000000 131.000000
-18.834000 41.219000 1.713000 142.000000 143.000000 135.000000
-18.907000 41.219000 1.655000 139.000000 140.000000 132.000000
-18.809000 41.220000 1.777000 144.000000 145.000000 139.000000
-18.937000 41.219000 1.757000 144.000000 143.000000 138.000000
-19.222000 41.218000 2.010000 139.000000 140.000000 135.000000
-18.772000 41.220000 2.021000 77.000000 77.000000 69.000000
-19.108000 41.219000 1.875000 144.000000 147.000000 136.000000
-18.943000 41.219000 1.907000 149.000000 151.000000 148.000000
-19.069000 41.219000 1.763000 142.000000 143.000000 137.000000
-19.016000 41.219000 1.810000 139.000000 144.000000 137.000000
-18.854000 41.220000 2.025000 49.000000 51.000000 48.000000
-18.646000 41.221000 1.935000 149.000000 151.000000 140.000000
-18.946000 41.219000 1.573000 140.000000 143.000000 134.000000
-18.717000 41.220000 1.793000 143.000000 146.000000 139.000000
-19.012000 41.219000 1.878000 147.000000 148.000000 140.000000
-18.892000 41.220000 2.050000 198.000000 188.000000 161.000000
-18.940000 41.219000 1.830000 142.000000 147.000000 141.000000
-19.030000 41.219000 2.016000 80.000000 83.000000 76.000000
-18.644000 41.221000 1.956000 149.000000 151.000000 137.000000
-18.785000 41.220000 1.826000 147.000000 148.000000 143.000000
-18.947000 41.219000 1.851000 145.000000 148.000000 141.000000
-18.978000 41.219000 2.037000 168.000000 160.000000 139.000000
-18.910000 41.219000 1.593000 141.000000 143.000000 132.000000
-19.167000 41.218000 1.973000 140.000000 142.000000 139.000000
-18.949000 41.219000 1.934000 150.000000 151.000000 146.000000
-18.834000 41.219000 1.684000 140.000000 141.000000 133.000000
-18.995000 41.219000 1.584000 140.000000 143.000000 132.000000
-18.797000 41.220000 2.024000 51.000000 53.000000 50.000000
-18.858000 41.220000 1.939000 150.000000 152.000000 141.000000
-19.087000 41.218000 1.758000 141.000000 143.000000 132.000000
-18.711000 41.220000 1.861000 143.000000 144.000000 138.000000
-18.818000 41.220000 1.864000 148.000000 149.000000 144.000000
-18.798000 41.220000 1.704000 143.000000 144.000000 136.000000
-18.876000 41.219000 1.675000 141.000000 142.000000 134.000000
-19.039000 41.219000 1.682000 139.000000 142.000000 133.000000
-19.001000 41.219000 1.836000 144.000000 147.000000 140.000000
-19.235000 41.218000 2.018000 126.000000 127.000000 121.000000
-18.789000 41.220000 1.679000 142.000000 143.000000 135.000000
-18.922000 41.219000 1.552000 140.000000 144.000000 130.000000
-19.072000 41.219000 1.775000 142.000000 144.000000 131.000000
-18.855000 41.219000 1.621000 141.000000 143.000000 130.000000
-18.918000 41.219000 1.662000 139.000000 140.000000 132.000000
-18.742000 41.220000 2.009000 128.000000 128.000000 118.000000
-18.920000 41.219000 1.729000 142.000000 142.000000 132.000000
-19.214000 41.218000 1.950000 139.000000 141.000000 138.000000
-19.282000 41.218000 2.030000 92.000000 84.000000 81.000000
-19.231000 41.218000 2.014000 133.000000 134.000000 128.000000
-18.953000 41.219000 1.760000 142.000000 143.000000 137.000000
-18.923000 41.219000 1.760000 143.000000 143.000000 135.000000
-19.040000 41.219000 1.932000 145.000000 151.000000 149.000000
-18.814000 41.219000 1.687000 141.000000 142.000000 134.000000
-19.013000 41.219000 1.900000 148.000000 151.000000 144.000000
-18.754000 41.220000 1.798000 143.000000 145.000000 140.000000
-18.822000 41.220000 1.752000 142.000000 143.000000 135.000000
-18.945000 41.220000 2.021000 61.000000 60.000000 58.000000
-19.193000 41.218000 1.922000 141.000000 143.000000 138.000000
-18.579000 41.221000 2.009000 147.000000 149.000000 135.000000
-18.931000 41.219000 1.662000 139.000000 142.000000 133.000000
-18.958000 41.219000 1.674000 139.000000 140.000000 132.000000
-18.979000 41.219000 1.737000 141.000000 144.000000 135.000000
-18.871000 41.220000 1.842000 146.000000 146.000000 144.000000
-18.778000 41.220000 1.836000 147.000000 148.000000 143.000000
-19.276000 41.218000 2.024000 119.000000 119.000000 109.000000
-18.830000 41.219000 1.721000 140.000000 143.000000 134.000000
-18.915000 41.219000 1.622000 142.000000 142.000000 132.000000
-18.685000 41.221000 2.009000 133.000000 133.000000 121.000000
-18.659000 41.221000 1.897000 148.000000 150.000000 139.000000
-18.872000 41.219000 1.768000 142.000000 145.000000 136.000000
-18.978000 41.219000 1.833000 142.000000 147.000000 140.000000
-18.788000 41.220000 1.700000 141.000000 142.000000 134.000000
-18.793000 41.220000 1.760000 143.000000 144.000000 139.000000
-18.714000 41.220000 1.942000 149.000000 151.000000 138.000000
-18.611000 41.221000 2.027000 70.000000 65.000000 61.000000
-19.270000 41.218000 2.054000 135.000000 109.000000 86.000000
-19.257000 41.218000 2.051000 143.000000 129.000000 103.000000
-18.617000 41.221000 1.944000 150.000000 152.000000 139.000000
-18.771000 41.220000 1.797000 143.000000 146.000000 139.000000
-18.911000 41.219000 1.856000 145.000000 147.000000 142.000000
-18.805000 41.220000 2.032000 52.000000 49.000000 42.000000
-18.991000 41.219000 1.738000 141.000000 144.000000 135.000000
-19.224000 41.218000 1.939000 140.000000 142.000000 137.000000
-19.070000 41.219000 1.891000 146.000000 149.000000 142.000000
-18.785000 41.220000 1.842000 148.000000 149.000000 144.000000
-19.116000 41.219000 1.943000 146.000000 151.000000 147.000000
-18.679000 41.220000 1.905000 146.000000 148.000000 137.000000
-18.764000 41.220000 2.032000 23.000000 22.000000 17.000000
-18.953000 41.219000 1.844000 142.000000 147.000000 140.000000
-19.078000 41.219000 2.039000 143.000000 128.000000 107.000000
-19.044000 41.219000 1.825000 141.000000 146.000000 139.000000
-18.913000 41.219000 1.675000 140.000000 142.000000 131.000000
-18.867000 41.219000 1.789000 143.000000 146.000000 139.000000
-18.843000 41.219000 1.661000 141.000000 143.000000 132.000000
-18.817000 41.220000 1.838000 148.000000 149.000000 144.000000
-18.864000 41.219000 1.612000 140.000000 142.000000 128.000000
-18.783000 41.220000 1.795000 143.000000 146.000000 139.000000
-18.891000 41.220000 1.999000 155.000000 152.000000 143.000000
-18.872000 41.219000 1.566000 141.000000 143.000000 132.000000
-19.054000 41.219000 2.002000 143.000000 142.000000 137.000000
-18.954000 41.219000 1.634000 140.000000 141.000000 133.000000
-18.882000 41.219000 1.610000 142.000000 142.000000 130.000000
-19.233000 41.218000 1.953000 139.000000 141.000000 138.000000
-18.935000 41.219000 1.920000 149.000000 151.000000 148.000000
-18.776000 41.220000 1.962000 149.000000 151.000000 138.000000
-19.063000 41.219000 1.795000 140.000000 143.000000 136.000000
-19.121000 41.219000 1.906000 143.000000 144.000000 138.000000
-18.833000 41.220000 1.932000 150.000000 152.000000 141.000000
-18.881000 41.219000 1.646000 140.000000 141.000000 133.000000
-18.978000 41.219000 1.644000 141.000000 143.000000 132.000000
-19.052000 41.219000 1.937000 146.000000 151.000000 147.000000
-19.189000 41.218000 2.032000 72.000000 74.000000 69.000000
-18.900000 41.219000 1.880000 147.000000 148.000000 143.000000
-18.973000 41.219000 1.674000 140.000000 141.000000 133.000000
-18.800000 41.220000 2.005000 137.000000 139.000000 128.000000
-18.771000 41.220000 1.826000 144.000000 147.000000 140.000000
-19.030000 41.219000 1.933000 146.000000 152.000000 152.000000
-18.735000 41.220000 1.950000 149.000000 151.000000 138.000000
-18.692000 41.220000 1.916000 145.000000 147.000000 134.000000
-19.053000 41.219000 1.963000 151.000000 153.000000 148.000000
-18.774000 41.220000 1.741000 145.000000 144.000000 139.000000
-18.750000 41.220000 1.994000 150.000000 152.000000 139.000000
-19.017000 41.219000 1.951000 151.000000 153.000000 148.000000
-18.835000 41.219000 1.679000 140.000000 141.000000 133.000000
-18.899000 41.219000 1.624000 141.000000 141.000000 131.000000
-18.704000 41.220000 1.911000 146.000000 148.000000 137.000000
-18.944000 41.219000 1.655000 138.000000 141.000000 132.000000
-18.703000 41.221000 1.994000 149.000000 150.000000 134.000000
-19.066000 41.218000 1.720000 139.000000 142.000000 131.000000
-18.795000 41.220000 1.853000 148.000000 149.000000 144.000000
-19.010000 41.219000 2.013000 110.000000 111.000000 103.000000
-18.814000 41.220000 1.852000 148.000000 149.000000 144.000000
-18.973000 41.219000 1.891000 148.000000 150.000000 147.000000
-18.847000 41.220000 1.935000 150.000000 152.000000 141.000000
-18.948000 41.219000 1.706000 142.000000 142.000000 134.000000
-18.973000 41.219000 1.854000 142.000000 147.000000 140.000000
-19.262000 41.218000 2.041000 164.000000 163.000000 161.000000
-18.649000 41.221000 1.973000 150.000000 153.000000 136.000000
-18.887000 41.219000 1.664000 141.000000 143.000000 132.000000
-18.991000 41.219000 1.656000 141.000000 143.000000 132.000000
-19.029000 41.219000 1.808000 139.000000 144.000000 137.000000
-19.138000 41.218000 1.812000 142.000000 145.000000 138.000000
-18.928000 41.219000 1.571000 141.000000 145.000000 131.000000
-18.940000 41.219000 1.972000 152.000000 154.000000 141.000000
-18.777000 41.220000 1.752000 144.000000 145.000000 139.000000
-18.888000 41.220000 2.042000 159.000000 151.000000 130.000000
-19.186000 41.218000 2.027000 111.000000 111.000000 103.000000
-18.900000 41.220000 2.006000 132.000000 132.000000 124.000000
-18.735000 41.220000 1.898000 145.000000 146.000000 138.000000
-19.008000 41.219000 2.051000 192.000000 180.000000 164.000000
-19.103000 41.219000 2.038000 157.000000 141.000000 128.000000
-18.837000 41.219000 1.608000 139.000000 143.000000 129.000000
-18.950000 41.219000 1.788000 138.000000 143.000000 136.000000
-19.183000 41.218000 1.910000 140.000000 142.000000 139.000000
-19.000000 41.219000 1.617000 141.000000 142.000000 134.000000
-18.804000 41.220000 1.785000 144.000000 146.000000 141.000000
-19.023000 41.219000 1.683000 140.000000 142.000000 131.000000
-18.924000 41.219000 1.713000 142.000000 144.000000 133.000000
-18.881000 41.219000 1.621000 141.000000 141.000000 131.000000
-19.061000 41.219000 1.861000 145.000000 148.000000 137.000000
-19.126000 41.218000 1.812000 143.000000 146.000000 139.000000
-18.939000 41.219000 1.976000 151.000000 154.000000 145.000000
-18.872000 41.219000 1.679000 141.000000 142.000000 134.000000
