-16.770000 40.635000 0.341000 102.000000 78.000000 40.000000
-16.660000 40.627000 0.181000 101.000000 73.000000 34.000000
-16.687000 40.629000 0.139000 102.000000 72.000000 34.000000
-16.643000 40.626000 0.126000 97.000000 72.000000 31.000000
-16.714000 40.632000 0.109000 98.000000 73.000000 33.000000
-16.808000 40.639000 0.250000 92.000000 69.000000 35.000000
-16.790000 40.638000 0.132000 88.000000 65.000000 31.000000
-16.792000 40.638000 0.143000 89.000000 67.000000 30.000000
-16.774000 40.635000 0.313000 99.000000 75.000000 37.000000
-16.764000 40.635000 0.293000 99.000000 75.000000 39.000000
-16.798000 40.638000 0.250000 92.000000 69.000000 35.000000
-16.821000 40.640000 0.225000 92.000000 66.000000 31.000000
-16.732000 40.633000 0.184000 88.000000 64.000000 26.000000
-16.705000 40.631000 0.182000 96.000000 68.000000 31.000000
-16.678000 40.628000 0.192000 97.000000 73.000000 35.000000
-16.782000 40.637000 0.144000 90.000000 66.000000 28.000000
-16.781000 40.636000 0.258000 96.000000 72.000000 38.000000
-16.733000 40.632000 0.262000 94.000000 72.000000 35.000000
-16.809000 40.640000 0.093000 88.000000 66.000000 29.000000
-16.616000 40.624000 0.107000 96.000000 73.000000 31.000000
-16.810000 40.639000 0.174000 91.000000 71.000000 36.000000
-16.739000 40.633000 0.267000 96.000000 74.000000 37.000000
-16.876000 40.645000 0.119000 92.000000 68.000000 30.000000
-16.827000 40.641000 0.118000 96.000000 70.000000 33.000000
-16.742000 40.633000 0.307000 98.000000 74.000000 38.000000
-16.629000 40.625000 0.127000 99.000000 75.000000 31.000000
-16.698000 40.630000 0.151000 96.000000 70.000000 33.000000
-16.781000 40.637000 0.106000 88.000000 65.000000 33.000000
-16.741000 40.633000 0.216000 93.000000 69.000000 33.000000
-16.792000 40.637000 0.282000 98.000000 74.000000 38.000000
-16.780000 40.637000 0.158000 93.000000 66.000000 23.000000
-16.707000 40.631000 0.160000 94.000000 72.000000 33.000000
-16.681000 40.629000 0.174000 98.000000 73.000000 33.000000
-16.650000 40.626000 0.177000 104.000000 76.000000 36.000000
-16.605000 40.623000 0.100000 101.000000 77.000000 41.000000
-16.692000 40.630000 0.168000 95.000000 70.000000 30.000000
-16.652000 40.627000 0.094000 93.000000 75.000000 39.000000
-16.704000 40.631000 0.104000 94.000000 69.000000 29.000000
-16.716000 40.632000 0.166000 93.000000 70.000000 29.000000
-16.742000 40.634000 0.174000 91.000000 65.000000 28.000000
-16.717000 40.631000 0.274000 96.000000 74.000000 37.000000
-16.626000 40.624000 0.141000 99.000000 75.000000 31.000000
-16.769000 40.635000 0.282000 97.000000 73.000000 37.000000
-16.840000 40.642000 0.166000 91.000000 67.000000 31.000000
-16.706000 40.630000 0.243000 93.000000 70.000000 38.000000
-16.775000 40.637000 0.146000 91.000000 67.000000 29.000000
-16.724000 40.632000 0.135000 92.000000 68.000000 32.000000
-16.613000 40.624000 0.103000 97.000000 74.000000 33.000000
-16.861000 40.644000 0.143000 88.000000 65.000000 31.000000
-16.645000 40.626000 0.154000 101.000000 73.000000 33.000000
-16.722000 40.632000 0.179000 91.000000 68.000000 27.000000
-16.797000 40.638000 0.229000 95.000000 69.000000 34.000000
-16.823000 40.640000 0.188000 91.000000 68.000000 34.000000
-16.698000 40.631000 0.099000 98.000000 73.000000 32.000000
-16.704000 40.631000 0.179000 96.000000 68.000000 31.000000
-16.633000 40.625000 0.166000 102.000000 75.000000 32.000000
-16.747000 40.633000 0.269000 97.000000 75.000000 38.000000
-16.675000 40.628000 0.206000 98.000000 70.000000 33.000000
-16.674000 40.629000 0.095000 99.000000 76.000000 35.000000
-16.694000 40.630000 0.130000 98.000000 70.000000 33.000000
-16.794000 40.637000 0.296000 97.000000 75.000000 38.000000
-16.752000 40.635000 0.170000 92.000000 66.000000 29.000000
-16.668000 40.628000 0.165000 102.000000 74.000000 34.000000
-16.754000 40.635000 0.096000 90.000000 67.000000 33.000000
-16.849000 40.643000 0.094000 94.000000 69.000000 28.000000
-16.660000 40.627000 0.116000 97.000000 74.000000 32.000000
-16.850000 40.643000 0.130000 90.000000 66.000000 28.000000
-16.798000 40.638000 0.212000 93.000000 64.000000 30.000000
-16.733000 40.633000 0.120000 93.000000 69.000000 31.000000
-16.715000 40.631000 0.225000 92.000000 68.000000 34.000000
-16.800000 40.639000 0.111000 93.000000 69.000000 35.000000
-16.668000 40.628000 0.125000 102.000000 74.000000 35.000000
-16.772000 40.636000 0.180000 94.000000 66.000000 29.000000
-16.673000 40.628000 0.127000 102.000000 74.000000 35.000000
-16.757000 40.634000 0.238000 94.000000 71.000000 39.000000
-16.773000 40.635000 0.320000 100.000000 76.000000 38.000000
-16.747000 40.633000 0.311000 97.000000 73.000000 37.000000
-16.725000 40.632000 0.153000 94.000000 69.000000 28.000000
-16.634000 40.625000 0.118000 99.000000 75.000000 31.000000
-16.857000 40.644000 0.117000 93.000000 68.000000 28.000000
-16.756000 40.634000 0.310000 98.000000 74.000000 38.000000
-16.777000 40.636000 0.249000 93.000000 73.000000 38.000000
-16.769000 40.636000 0.131000 88.000000 68.000000 33.000000
-16.764000 40.634000 0.333000 100.000000 77.000000 36.000000
-16.741000 40.634000 0.135000 92.000000 70.000000 31.000000
-16.819000 40.640000 0.161000 89.000000 69.000000 34.000000
-16.786000 40.636000 0.300000 97.000000 75.000000 38.000000
-16.722000 40.632000 0.233000 88.000000 65.000000 33.000000
-16.666000 40.628000 0.097000 96.000000 76.000000 39.000000
-16.858000 40.644000 0.128000 91.000000 65.000000 28.000000
-16.648000 40.626000 0.133000 98.000000 73.000000 32.000000
-16.670000 40.627000 0.206000 104.000000 76.000000 39.000000
-16.746000 40.634000 0.194000 92.000000 67.000000 27.000000
-16.798000 40.638000 0.179000 92.000000 66.000000 31.000000
-16.824000 40.641000 0.121000 94.000000 68.000000 31.000000
-16.780000 40.637000 0.147000 91.000000 67.000000 29.000000
-16.796000 40.637000 0.278000 96.000000 72.000000 36.000000
-16.728000 40.632000 0.288000 97.000000 73.000000 37.000000
-16.776000 40.637000 0.147000 91.000000 67.000000 29.000000
-16.646000 40.626000 0.126000 98.000000 73.000000 32.000000
-16.797000 40.638000 0.150000 91.000000 67.000000 31.000000
-16.797000 40.638000 0.170000 91.000000 65.000000 30.000000
-16.847000 40.643000 0.127000 91.000000 65.000000 28.000000
-16.772000 40.636000 0.198000 94.000000 68.000000 31.000000
-16.664000 40.628000 0.141000 102.000000 74.000000 35.000000
-16.772000 40.635000 0.345000 99.000000 75.000000 37.000000
-16.710000 40.631000 0.222000 90.000000 67.000000 33.000000
-16.869000 40.645000 0.113000 91.000000 68.000000 27.000000
-16.757000 40.635000 0.174000 93.000000 67.000000 30.000000
-16.801000 40.638000 0.250000 92.000000 69.000000 35.000000
-16.824000 40.640000 0.183000 88.000000 68.000000 33.000000
-16.677000 40.629000 0.116000 99.000000 74.000000 34.000000
-16.742000 40.634000 0.110000 96.000000 72.000000 36.000000
-16.834000 40.641000 0.170000 92.000000 68.000000 34.000000
-16.791000 40.638000 0.125000 93.000000 69.000000 35.000000
-16.737000 40.633000 0.146000 95.000000 71.000000 33.000000
-16.741000 40.633000 0.217000 93.000000 69.000000 33.000000
-16.654000 40.627000 0.155000 102.000000 74.000000 34.000000
-16.858000 40.644000 0.113000 96.000000 68.000000 28.000000
-16.738000 40.633000 0.240000 92.000000 69.000000 37.000000
-16.742000 40.634000 0.166000 94.000000 68.000000 31.000000
-16.721000 40.631000 0.283000 97.000000 75.000000 38.000000
-16.718000 40.632000 0.154000 95.000000 70.000000 29.000000
-16.723000 40.633000 0.091000 93.000000 69.000000 31.000000
-16.651000 40.626000 0.145000 101.000000 73.000000 33.000000
-16.818000 40.641000 0.106000 102.000000 74.000000 37.000000
-16.754000 40.635000 0.160000 96.000000 67.000000 33.000000
-16.738000 40.634000 0.107000 93.000000 69.000000 33.000000
-16.757000 40.635000 0.182000 93.000000 67.000000 30.000000
-16.809000 40.639000 0.261000 95.000000 71.000000 37.000000
-16.873000 40.645000 0.100000 93.000000 68.000000 28.000000
-16.680000 40.629000 0.164000 99.000000 74.000000 34.000000
-16.746000 40.634000 0.214000 93.000000 69.000000 33.000000
-16.734000 40.633000 0.150000 96.000000 71.000000 31.000000
-16.708000 40.631000 0.143000 95.000000 69.000000 32.000000
-16.737000 40.633000 0.239000 92.000000 69.000000 37.000000
-16.820000 40.640000 0.175000 93.000000 70.000000 36.000000
-16.850000 40.643000 0.160000 86.000000 66.000000 31.000000
-16.784000 40.638000 0.099000 87.000000 64.000000 32.000000
-16.819000 40.640000 0.158000 89.000000 69.000000 34.000000
-16.723000 40.632000 0.205000 91.000000 67.000000 31.000000
-16.744000 40.634000 0.163000 96.000000 70.000000 33.000000
-16.861000 40.644000 0.111000 92.000000 67.000000 27.000000
-16.792000 40.638000 0.137000 86.000000 63.000000 29.000000
-16.667000 40.628000 0.115000 98.000000 76.000000 35.000000
-16.706000 40.630000 0.232000 93.000000 70.000000 36.000000
-16.665000 40.627000 0.201000 100.000000 77.000000 36.000000
-16.702000 40.631000 0.141000 98.000000 70.000000 33.000000
-16.729000 40.632000 0.244000 91.000000 68.000000 36.000000
-16.700000 40.630000 0.257000 97.000000 73.000000 37.000000
-16.831000 40.641000 0.200000 89.000000 66.000000 34.000000
-16.734000 40.634000 0.108000 93.000000 69.000000 33.000000
-16.623000 40.624000 0.141000 99.000000 75.000000 31.000000
-16.792000 40.638000 0.125000 93.000000 69.000000 35.000000
-16.759000 40.635000 0.127000 89.000000 69.000000 32.000000
-16.800000 40.638000 0.209000 93.000000 64.000000 30.000000
-16.679000 40.629000 0.128000 102.000000 74.000000 35.000000
-16.765000 40.635000 0.220000 94.000000 70.000000 34.000000
-16.825000 40.641000 0.146000 92.000000 69.000000 35.000000
-16.777000 40.636000 0.199000 94.000000 68.000000 31.000000
-16.804000 40.639000 0.137000 93.000000 71.000000 34.000000
-16.741000 40.633000 0.223000 93.000000 69.000000 35.000000
-16.647000 40.626000 0.185000 99.000000 74.000000 33.000000
-16.781000 40.636000 0.298000 98.000000 76.000000 39.000000
-16.764000 40.635000 0.175000 94.000000 66.000000 27.000000
-16.768000 40.635000 0.220000 94.000000 70.000000 34.000000
-16.792000 40.638000 0.191000 95.000000 67.000000 30.000000
-16.664000 40.627000 0.159000 104.000000 74.000000 36.000000
-16.721000 40.631000 0.262000 94.000000 72.000000 35.000000
-16.838000 40.642000 0.103000 105.000000 77.000000 40.000000
-16.773000 40.637000 0.132000 87.000000 67.000000 32.000000
-16.864000 40.644000 0.110000 93.000000 68.000000 28.000000
-16.814000 40.639000 0.224000 92.000000 66.000000 31.000000
-16.727000 40.633000 0.147000 94.000000 71.000000 30.000000
-16.758000 40.634000 0.291000 98.000000 74.000000 38.000000
-16.779000 40.637000 0.101000 89.000000 66.000000 34.000000
-16.757000 40.634000 0.272000 95.000000 73.000000 36.000000
-16.850000 40.643000 0.104000 95.000000 67.000000 28.000000
-16.788000 40.637000 0.212000 93.000000 67.000000 32.000000
-16.671000 40.628000 0.101000 100.000000 74.000000 37.000000
-16.752000 40.634000 0.224000 94.000000 70.000000 36.000000
-16.764000 40.635000 0.187000 93.000000 68.000000 28.000000
-16.691000 40.629000 0.192000 97.000000 71.000000 34.000000
-16.794000 40.638000 0.163000 90.000000 64.000000 27.000000
-16.765000 40.635000 0.198000 93.000000 68.000000 28.000000
-16.730000 40.632000 0.230000 91.000000 68.000000 36.000000
-16.845000 40.643000 0.130000 91.000000 67.000000 29.000000
-16.800000 40.639000 0.094000 89.000000 66.000000 32.000000
-16.699000 40.630000 0.222000 95.000000 72.000000 38.000000
-16.643000 40.626000 0.143000 101.000000 73.000000 33.000000
-16.744000 40.634000 0.114000 97.000000 73.000000 37.000000
-16.642000 40.626000 0.157000 102.000000 74.000000 34.000000
-16.600000 40.622000 0.109000 97.000000 73.000000 27.000000
-16.747000 40.633000 0.295000 98.000000 74.000000 38.000000
-16.676000 40.629000 0.112000 98.000000 75.000000 34.000000
-16.697000 40.631000 0.092000 92.000000 69.000000 28.000000
-16.712000 40.631000 0.186000 94.000000 65.000000 31.000000
-16.779000 40.636000 0.221000 94.000000 68.000000 33.000000
-16.787000 40.638000 0.109000 91.000000 68.000000 36.000000
-16.788000 40.637000 0.220000 93.000000 67.000000 32.000000
-16.744000 40.633000 0.219000 93.000000 69.000000 33.000000
-16.684000 40.629000 0.137000 101.000000 71.000000 33.000000
-16.657000 40.627000 0.170000 104.000000 75.000000 35.000000
-16.840000 40.642000 0.147000 89.000000 66.000000 32.000000
-16.713000 40.631000 0.253000 92.000000 69.000000 35.000000
-16.775000 40.637000 0.145000 90.000000 66.000000 30.000000
-16.699000 40.630000 0.191000 97.000000 71.000000 36.000000
-16.722000 40.632000 0.163000 92.000000 69.000000 28.000000
-16.703000 40.630000 0.240000 93.000000 70.000000 38.000000
-16.745000 40.634000 0.110000 95.000000 71.000000 35.000000
-16.722000 40.632000 0.174000 94.000000 71.000000 30.000000
-16.881000 40.646000 0.095000 95.000000 68.000000 25.000000
-16.641000 40.625000 0.167000 102.000000 74.000000 34.000000
-16.605000 40.623000 0.109000 99.000000 75.000000 29.000000
-16.754000 40.634000 0.208000 94.000000 69.000000 29.000000
-16.806000 40.639000 0.215000 93.000000 64.000000 30.000000
-16.677000 40.629000 0.139000 103.000000 73.000000 35.000000
-16.748000 40.633000 0.313000 97.000000 73.000000 37.000000
-16.735000 40.633000 0.182000 90.000000 64.000000 27.000000
-16.767000 40.635000 0.250000 93.000000 73.000000 38.000000
-16.679000 40.629000 0.100000 100.000000 75.000000 35.000000
-16.776000 40.637000 0.094000 89.000000 69.000000 36.000000
-16.678000 40.629000 0.131000 102.000000 72.000000 34.000000
-16.606000 40.623000 0.117000 100.000000 76.000000 32.000000
-16.750000 40.635000 0.142000 91.000000 69.000000 30.000000
-16.751000 40.634000 0.266000 97.000000 75.000000 38.000000
-16.788000 40.637000 0.234000 96.000000 72.000000 38.000000
-16.782000 40.637000 0.163000 93.000000 65.000000 28.000000
-16.692000 40.630000 0.095000 93.000000 68.000000 27.000000
-16.781000 40.637000 0.205000 92.000000 66.000000 29.000000
-16.729000 40.632000 0.231000 91.000000 68.000000 36.000000
-16.757000 40.635000 0.126000 89.000000 69.000000 32.000000
-16.663000 40.628000 0.119000 98.000000 75.000000 34.000000
-16.785000 40.637000 0.147000 91.000000 67.000000 29.000000
-16.773000 40.637000 0.116000 88.000000 69.000000 29.000000
-16.773000 40.635000 0.286000 97.000000 73.000000 37.000000
-16.776000 40.636000 0.181000 94.000000 66.000000 29.000000
-16.830000 40.641000 0.223000 94.000000 66.000000 29.000000
-16.751000 40.635000 0.100000 90.000000 68.000000 31.000000
-16.670000 40.628000 0.109000 97.000000 71.000000 36.000000
-16.749000 40.633000 0.289000 97.000000 73.000000 37.000000
-16.856000 40.643000 0.169000 89.000000 65.000000 29.000000
-16.853000 40.644000 0.096000 94.000000 69.000000 28.000000
-16.770000 40.635000 0.236000 94.000000 71.000000 37.000000
-16.703000 40.630000 0.235000 92.000000 69.000000 35.000000
-16.782000 40.637000 0.200000 93.000000 67.000000 30.000000
-16.750000 40.635000 0.124000 91.000000 69.000000 32.000000
-16.657000 40.627000 0.094000 94.000000 76.000000 40.000000
-16.848000 40.642000 0.175000 88.000000 65.000000 33.000000
-16.771000 40.635000 0.319000 100.000000 76.000000 38.000000
-16.740000 40.633000 0.187000 92.000000 66.000000 29.000000
-16.711000 40.632000 0.093000 97.000000 71.000000 36.000000
-16.850000 40.643000 0.154000 87.000000 67.000000 32.000000
-16.631000 40.625000 0.117000 99.000000 75.000000 31.000000
-16.727000 40.633000 0.102000 93.000000 69.000000 31.000000
-16.736000 40.634000 0.135000 94.000000 72.000000 33.000000
-16.717000 40.631000 0.254000 92.000000 69.000000 35.000000
-16.815000 40.640000 0.091000 91.000000 67.000000 29.000000
-16.830000 40.641000 0.120000 96.000000 70.000000 33.000000
-16.747000 40.634000 0.192000 92.000000 66.000000 29.000000
-16.748000 40.633000 0.303000 99.000000 75.000000 39.000000
-16.804000 40.639000 0.167000 92.000000 66.000000 31.000000
-16.826000 40.641000 0.095000 94.000000 68.000000 31.000000
-16.824000 40.641000 0.096000 95.000000 69.000000 32.000000
-16.732000 40.632000 0.259000 93.000000 71.000000 34.000000
-16.670000 40.628000 0.100000 102.000000 76.000000 39.000000
-16.652000 40.627000 0.134000 100.000000 75.000000 34.000000
-16.769000 40.635000 0.235000 94.000000 71.000000 37.000000
-16.716000 40.631000 0.275000 97.000000 75.000000 38.000000
-16.771000 40.635000 0.312000 99.000000 75.000000 37.000000
-16.754000 40.634000 0.241000 94.000000 71.000000 39.000000
-16.583000 40.621000 0.092000 104.000000 83.000000 56.000000
-16.751000 40.634000 0.275000 95.000000 73.000000 36.000000
-16.703000 40.630000 0.197000 96.000000 70.000000 35.000000
-16.720000 40.632000 0.164000 93.000000 70.000000 29.000000
-16.710000 40.631000 0.223000 91.000000 68.000000 34.000000
-16.842000 40.642000 0.132000 92.000000 68.000000 30.000000
-16.800000 40.638000 0.244000 95.000000 71.000000 37.000000
-16.852000 40.643000 0.116000 93.000000 68.000000 28.000000
-16.662000 40.628000 0.100000 99.000000 77.000000 38.000000
-16.757000 40.634000 0.287000 96.000000 74.000000 37.000000
-16.651000 40.626000 0.166000 105.000000 76.000000 36.000000
-16.736000 40.634000 0.091000 96.000000 73.000000 39.000000
-16.815000 40.640000 0.166000 89.000000 69.000000 36.000000
-16.651000 40.626000 0.166000 105.000000 76.000000 36.000000
-16.842000 40.643000 0.093000 96.000000 72.000000 28.000000
-16.757000 40.635000 0.191000 93.000000 68.000000 28.000000
-16.694000 40.629000 0.219000 95.000000 72.000000 38.000000
-16.792000 40.637000 0.265000 97.000000 71.000000 38.000000
-16.808000 40.639000 0.201000 93.000000 64.000000 30.000000
-16.683000 40.629000 0.102000 97.000000 72.000000 31.000000
-16.847000 40.643000 0.156000 88.000000 68.000000 33.000000
-16.753000 40.634000 0.206000 93.000000 68.000000 28.000000
-16.755000 40.634000 0.230000 94.000000 71.000000 39.000000
-16.860000 40.644000 0.100000 93.000000 65.000000 26.000000
-16.699000 40.630000 0.173000 96.000000 70.000000 33.000000
-16.713000 40.631000 0.207000 92.000000 68.000000 32.000000
-16.714000 40.631000 0.226000 92.000000 68.000000 34.000000
-16.681000 40.629000 0.105000 99.000000 74.000000 34.000000
-16.720000 40.631000 0.256000 92.000000 69.000000 35.000000
-16.809000 40.639000 0.160000 91.000000 66.000000 35.000000
-16.851000 40.643000 0.104000 94.000000 66.000000 27.000000
-16.792000 40.638000 0.102000 91.000000 68.000000 36.000000
-16.831000 40.641000 0.218000 93.000000 65.000000 28.000000
-16.881000 40.646000 0.090000 91.000000 67.000000 21.000000
-16.852000 40.643000 0.161000 86.000000 66.000000 31.000000
-16.833000 40.641000 0.210000 91.000000 68.000000 34.000000
-16.690000 40.630000 0.123000 99.000000 74.000000 34.000000
-16.778000 40.636000 0.236000 95.000000 71.000000 37.000000
-16.842000 40.642000 0.130000 92.000000 68.000000 30.000000
-16.753000 40.635000 0.091000 89.000000 69.000000 36.000000
-16.765000 40.635000 0.293000 99.000000 75.000000 39.000000
-16.757000 40.634000 0.232000 94.000000 71.000000 39.000000
-16.677000 40.629000 0.127000 102.000000 74.000000 35.000000
-16.748000 40.635000 0.099000 90.000000 68.000000 31.000000
-16.753000 40.634000 0.286000 96.000000 74.000000 37.000000
-16.779000 40.637000 0.186000 93.000000 67.000000 30.000000
-16.615000 40.623000 0.138000 100.000000 76.000000 32.000000
-16.816000 40.640000 0.093000 91.000000 67.000000 29.000000
-16.763000 40.636000 0.114000 88.000000 71.000000 28.000000
-16.788000 40.637000 0.228000 96.000000 70.000000 35.000000
-16.695000 40.630000 0.162000 97.000000 74.000000 33.000000
-16.736000 40.633000 0.146000 95.000000 71.000000 33.000000
-16.745000 40.635000 0.094000 92.000000 69.000000 35.000000
-16.739000 40.633000 0.273000 96.000000 74.000000 37.000000
-16.796000 40.639000 0.090000 89.000000 69.000000 36.000000
-16.740000 40.634000 0.160000 97.000000 69.000000 32.000000
-16.688000 40.630000 0.097000 98.000000 73.000000 32.000000
-16.728000 40.633000 0.179000 88.000000 64.000000 26.000000
-16.755000 40.634000 0.327000 98.000000 74.000000 38.000000
-16.775000 40.636000 0.215000 94.000000 68.000000 33.000000
-16.798000 40.639000 0.112000 93.000000 69.000000 35.000000
-16.838000 40.642000 0.131000 92.000000 68.000000 30.000000
-16.755000 40.635000 0.136000 91.000000 72.000000 32.000000
-16.882000 40.646000 0.100000 96.000000 68.000000 28.000000
-16.746000 40.633000 0.285000 96.000000 74.000000 37.000000
-16.734000 40.633000 0.169000 93.000000 68.000000 28.000000
-16.731000 40.632000 0.277000 95.000000 73.000000 36.000000
-16.733000 40.633000 0.157000 95.000000 70.000000 30.000000
-16.657000 40.627000 0.097000 95.000000 75.000000 38.000000
-16.788000 40.637000 0.225000 95.000000 69.000000 34.000000
-16.845000 40.642000 0.187000 88.000000 65.000000 34.000000
-16.864000 40.644000 0.135000 86.000000 66.000000 31.000000
-16.679000 40.628000 0.222000 96.000000 73.000000 39.000000
-16.657000 40.627000 0.142000 101.000000 73.000000 33.000000
-16.658000 40.627000 0.128000 98.000000 75.000000 33.000000
-16.765000 40.635000 0.260000 97.000000 74.000000 40.000000
-16.825000 40.641000 0.138000 96.000000 72.000000 36.000000
-16.840000 40.642000 0.142000 90.000000 68.000000 31.000000
-16.678000 40.629000 0.095000 99.000000 76.000000 35.000000
-16.823000 40.640000 0.185000 88.000000 68.000000 33.000000
-16.691000 40.629000 0.220000 97.000000 74.000000 40.000000
-16.773000 40.637000 0.113000 90.000000 67.000000 35.000000
-16.730000 40.633000 0.163000 93.000000 70.000000 29.000000
-16.754000 40.633000 0.321000 99.000000 75.000000 39.000000
-16.655000 40.627000 0.165000 104.000000 75.000000 35.000000
-16.724000 40.632000 0.181000 89.000000 65.000000 27.000000
-16.695000 40.629000 0.246000 95.000000 72.000000 38.000000
-16.641000 40.625000 0.165000 102.000000 74.000000 34.000000
-16.714000 40.632000 0.113000 96.000000 70.000000 33.000000
-16.657000 40.627000 0.149000 101.000000 73.000000 33.000000
-16.682000 40.629000 0.152000 98.000000 70.000000 31.000000
-16.791000 40.638000 0.154000 90.000000 67.000000 26.000000
-16.665000 40.627000 0.183000 101.000000 73.000000 34.000000
-16.653000 40.627000 0.113000 99.000000 76.000000 34.000000
-16.629000 40.625000 0.144000 99.000000 75.000000 31.000000
-16.699000 40.631000 0.096000 97.000000 72.000000 32.000000
-16.675000 40.628000 0.186000 98.000000 75.000000 34.000000
-16.743000 40.633000 0.250000 94.000000 71.000000 37.000000
-16.808000 40.640000 0.101000 94.000000 70.000000 34.000000
-16.737000 40.633000 0.195000 91.000000 65.000000 28.000000
-16.674000 40.628000 0.194000 101.000000 75.000000 38.000000
-16.781000 40.636000 0.239000 94.000000 71.000000 37.000000
-16.738000 40.632000 0.290000 97.000000 73.000000 37.000000
-16.711000 40.631000 0.228000 90.000000 67.000000 33.000000
-16.841000 40.642000 0.116000 94.000000 69.000000 29.000000
-16.805000 40.639000 0.213000 93.000000 64.000000 30.000000
-16.633000 40.625000 0.123000 99.000000 75.000000 31.000000
-16.754000 40.635000 0.184000 93.000000 67.000000 30.000000
-16.819000 40.640000 0.193000 91.000000 67.000000 29.000000
-16.767000 40.635000 0.246000 93.000000 73.000000 38.000000
-16.749000 40.635000 0.128000 89.000000 70.000000 30.000000
-16.824000 40.641000 0.114000 98.000000 70.000000 31.000000
-16.808000 40.639000 0.147000 91.000000 68.000000 34.000000
-16.668000 40.628000 0.160000 102.000000 74.000000 34.000000
-16.803000 40.638000 0.254000 93.000000 70.000000 36.000000
-16.697000 40.631000 0.094000 92.000000 69.000000 28.000000
-16.780000 40.637000 0.163000 93.000000 65.000000 28.000000
-16.738000 40.633000 0.231000 92.000000 69.000000 37.000000
-16.694000 40.630000 0.180000 96.000000 70.000000 33.000000
-16.722000 40.632000 0.151000 95.000000 70.000000 30.000000
-16.711000 40.631000 0.158000 94.000000 72.000000 33.000000
-16.711000 40.631000 0.229000 91.000000 68.000000 34.000000
-16.832000 40.641000 0.206000 90.000000 67.000000 35.000000
-16.830000 40.641000 0.199000 89.000000 66.000000 32.000000
-16.625000 40.625000 0.091000 96.000000 81.000000 50.000000
-16.741000 40.634000 0.155000 95.000000 69.000000 32.000000
-16.783000 40.636000 0.276000 97.000000 73.000000 37.000000
-16.762000 40.636000 0.127000 89.000000 69.000000 32.000000
-16.740000 40.633000 0.241000 92.000000 69.000000 37.000000
-16.734000 40.632000 0.286000 95.000000 73.000000 36.000000
-16.807000 40.638000 0.270000 96.000000 70.000000 37.000000
-16.825000 40.640000 0.215000 94.000000 66.000000 29.000000
-16.776000 40.635000 0.301000 98.000000 76.000000 39.000000
-16.630000 40.625000 0.112000 100.000000 76.000000 32.000000
-16.697000 40.630000 0.134000 97.000000 69.000000 32.000000
-16.730000 40.633000 0.180000 87.000000 63.000000 25.000000
-16.758000 40.635000 0.198000 93.000000 68.000000 28.000000
-16.723000 40.632000 0.221000 93.000000 69.000000 35.000000
-16.845000 40.642000 0.173000 91.000000 67.000000 33.000000
-16.797000 40.638000 0.159000 91.000000 67.000000 31.000000
-16.633000 40.625000 0.105000 96.000000 72.000000 28.000000
-16.580000 40.623000 0.248000 109.000000 80.000000 36.000000
-16.585000 40.629000 0.623000 142.000000 103.000000 44.000000
-16.729000 40.632000 0.346000 96.000000 72.000000 34.000000
-16.715000 40.631000 0.285000 97.000000 75.000000 38.000000
-16.597000 40.629000 0.579000 141.000000 102.000000 45.000000
-16.712000 40.632000 0.370000 100.000000 74.000000 39.000000
-16.765000 40.634000 0.363000 93.000000 69.000000 35.000000
-16.592000 40.627000 0.485000 135.000000 99.000000 51.000000
-16.621000 40.628000 0.457000 114.000000 83.000000 39.000000
-16.576000 40.629000 0.656000 146.000000 104.000000 46.000000
-16.699000 40.632000 0.415000 109.000000 79.000000 41.000000
-16.685000 40.632000 0.461000 114.000000 85.000000 45.000000
-16.620000 40.625000 0.240000 105.000000 78.000000 35.000000
-16.646000 40.630000 0.482000 111.000000 82.000000 40.000000
-16.725000 40.632000 0.354000 97.000000 73.000000 35.000000
-16.593000 40.629000 0.577000 143.000000 104.000000 47.000000
-16.643000 40.631000 0.566000 140.000000 102.000000 53.000000
-16.575000 40.629000 0.682000 145.000000 105.000000 44.000000
-16.606000 40.626000 0.349000 108.000000 80.000000 40.000000
-16.583000 40.622000 0.189000 107.000000 78.000000 34.000000
-16.624000 40.631000 0.628000 141.000000 102.000000 45.000000
-16.676000 40.632000 0.517000 121.000000 88.000000 43.000000
-16.631000 40.625000 0.206000 101.000000 77.000000 33.000000
-16.708000 40.630000 0.287000 97.000000 71.000000 36.000000
-16.631000 40.625000 0.176000 102.000000 75.000000 32.000000
-16.627000 40.630000 0.546000 138.000000 101.000000 49.000000
-16.598000 40.624000 0.234000 110.000000 83.000000 40.000000
-16.573000 40.628000 0.618000 147.000000 107.000000 48.000000
-16.607000 40.629000 0.534000 139.000000 99.000000 47.000000
-16.586000 40.622000 0.155000 109.000000 80.000000 38.000000
-16.648000 40.631000 0.548000 127.000000 90.000000 45.000000
-16.594000 40.623000 0.194000 108.000000 81.000000 38.000000
-16.571000 40.625000 0.430000 114.000000 82.000000 41.000000
-16.627000 40.625000 0.231000 100.000000 76.000000 32.000000
-16.686000 40.632000 0.502000 121.000000 88.000000 45.000000
-16.629000 40.625000 0.231000 101.000000 77.000000 33.000000
-16.661000 40.627000 0.236000 106.000000 76.000000 38.000000
-16.616000 40.630000 0.561000 142.000000 103.000000 48.000000
-16.562000 40.620000 0.093000 109.000000 85.000000 59.000000
-16.582000 40.628000 0.558000 144.000000 105.000000 48.000000
-16.606000 40.623000 0.145000 107.000000 80.000000 37.000000
-16.635000 40.625000 0.184000 100.000000 75.000000 34.000000
-16.631000 40.630000 0.543000 138.000000 100.000000 51.000000
-16.608000 40.625000 0.308000 101.000000 73.000000 33.000000
-16.630000 40.628000 0.432000 109.000000 80.000000 38.000000
-16.601000 40.628000 0.472000 115.000000 82.000000 39.000000
-16.625000 40.626000 0.266000 103.000000 76.000000 33.000000
-16.575000 40.630000 0.725000 140.000000 100.000000 39.000000
-16.568000 40.629000 0.687000 145.000000 105.000000 43.000000
-16.592000 40.628000 0.522000 145.000000 106.000000 51.000000
-16.594000 40.626000 0.412000 107.000000 78.000000 36.000000
-16.651000 40.628000 0.351000 105.000000 77.000000 38.000000
-16.636000 40.631000 0.547000 133.000000 95.000000 46.000000
-16.639000 40.626000 0.254000 101.000000 73.000000 33.000000
-16.680000 40.631000 0.438000 113.000000 84.000000 42.000000
-16.650000 40.631000 0.563000 137.000000 99.000000 52.000000
-16.611000 40.625000 0.245000 108.000000 81.000000 38.000000
-16.561000 40.622000 0.223000 110.000000 77.000000 36.000000
-16.716000 40.633000 0.442000 107.000000 79.000000 42.000000
-16.601000 40.625000 0.309000 105.000000 77.000000 37.000000
-16.617000 40.626000 0.338000 107.000000 80.000000 37.000000
-16.565000 40.622000 0.226000 108.000000 77.000000 33.000000
-16.618000 40.630000 0.555000 143.000000 103.000000 51.000000
-16.584000 40.624000 0.308000 109.000000 79.000000 41.000000
-16.567000 40.625000 0.400000 110.000000 81.000000 39.000000
-16.710000 40.632000 0.412000 106.000000 78.000000 38.000000
-16.618000 40.628000 0.413000 108.000000 79.000000 39.000000
-16.621000 40.630000 0.562000 143.000000 103.000000 51.000000
-16.591000 40.630000 0.658000 146.000000 104.000000 44.000000
-16.617000 40.625000 0.248000 106.000000 77.000000 35.000000
-16.563000 40.622000 0.256000 105.000000 76.000000 36.000000
-16.615000 40.623000 0.147000 103.000000 76.000000 33.000000
-16.703000 40.631000 0.368000 102.000000 76.000000 39.000000
-16.576000 40.623000 0.278000 113.000000 81.000000 40.000000
-16.688000 40.631000 0.381000 105.000000 77.000000 38.000000
-16.583000 40.630000 0.722000 140.000000 102.000000 40.000000
-16.586000 40.630000 0.720000 141.000000 103.000000 41.000000
-16.693000 40.632000 0.428000 111.000000 82.000000 42.000000
-16.567000 40.628000 0.634000 145.000000 105.000000 44.000000
-16.747000 40.634000 0.378000 98.000000 74.000000 40.000000
-16.647000 40.628000 0.367000 105.000000 77.000000 38.000000
-16.648000 40.626000 0.234000 102.000000 74.000000 34.000000
-16.560000 40.621000 0.160000 110.000000 78.000000 29.000000
-16.595000 40.627000 0.430000 111.000000 79.000000 38.000000
-16.591000 40.624000 0.256000 108.000000 79.000000 37.000000
-16.620000 40.626000 0.280000 104.000000 76.000000 36.000000
-16.659000 40.630000 0.422000 108.000000 79.000000 37.000000
-16.717000 40.632000 0.337000 96.000000 72.000000 34.000000
-16.603000 40.625000 0.298000 106.000000 77.000000 37.000000
-16.703000 40.633000 0.481000 113.000000 81.000000 40.000000
-16.703000 40.631000 0.372000 101.000000 75.000000 38.000000
-16.672000 40.630000 0.389000 108.000000 78.000000 40.000000
-16.695000 40.632000 0.409000 110.000000 80.000000 42.000000
-16.621000 40.627000 0.334000 107.000000 79.000000 39.000000
-16.649000 40.628000 0.307000 101.000000 75.000000 38.000000
-16.635000 40.625000 0.199000 98.000000 73.000000 32.000000
-16.598000 40.624000 0.230000 111.000000 84.000000 41.000000
-16.574000 40.630000 0.746000 125.000000 92.000000 39.000000
-16.728000 40.633000 0.372000 100.000000 74.000000 39.000000
-16.569000 40.626000 0.450000 130.000000 94.000000 46.000000
-16.674000 40.631000 0.481000 115.000000 83.000000 42.000000
-16.649000 40.628000 0.349000 109.000000 77.000000 38.000000
-16.597000 40.624000 0.242000 108.000000 81.000000 38.000000
-16.596000 40.623000 0.210000 99.000000 72.000000 29.000000
-16.655000 40.629000 0.399000 107.000000 78.000000 38.000000
-16.627000 40.631000 0.625000 143.000000 104.000000 47.000000
-16.636000 40.627000 0.320000 105.000000 77.000000 38.000000
-16.741000 40.634000 0.415000 101.000000 77.000000 39.000000
-16.715000 40.632000 0.360000 101.000000 75.000000 38.000000
-16.747000 40.633000 0.345000 97.000000 73.000000 35.000000
-16.580000 40.629000 0.640000 144.000000 102.000000 44.000000
-16.563000 40.624000 0.369000 103.000000 75.000000 38.000000
-16.554000 40.619000 0.093000 111.000000 87.000000 61.000000
-16.582000 40.625000 0.386000 107.000000 78.000000 34.000000
-16.624000 40.630000 0.539000 139.000000 99.000000 50.000000
-16.684000 40.631000 0.444000 111.000000 82.000000 40.000000
-16.617000 40.629000 0.517000 131.000000 95.000000 47.000000
-16.622000 40.627000 0.387000 107.000000 79.000000 39.000000
-16.685000 40.633000 0.525000 123.000000 90.000000 45.000000
-16.573000 40.626000 0.442000 113.000000 81.000000 40.000000
-16.704000 40.631000 0.348000 99.000000 73.000000 36.000000
-16.628000 40.629000 0.476000 112.000000 80.000000 39.000000
-16.648000 40.629000 0.436000 108.000000 79.000000 37.000000
-16.686000 40.629000 0.274000 99.000000 73.000000 36.000000
-16.589000 40.628000 0.548000 144.000000 105.000000 50.000000
-16.696000 40.631000 0.402000 108.000000 78.000000 40.000000
-16.694000 40.630000 0.290000 99.000000 73.000000 38.000000
-16.736000 40.632000 0.322000 97.000000 73.000000 37.000000
-16.611000 40.623000 0.144000 105.000000 78.000000 35.000000
-16.696000 40.632000 0.452000 112.000000 82.000000 44.000000
-16.570000 40.621000 0.155000 111.000000 80.000000 36.000000
-16.626000 40.625000 0.208000 104.000000 77.000000 34.000000
-16.581000 40.628000 0.564000 144.000000 105.000000 48.000000
-16.644000 40.627000 0.292000 102.000000 74.000000 35.000000
-16.658000 40.632000 0.564000 132.000000 94.000000 47.000000
-16.680000 40.630000 0.334000 104.000000 74.000000 36.000000
-16.759000 40.634000 0.374000 97.000000 73.000000 39.000000
-16.642000 40.629000 0.447000 109.000000 80.000000 36.000000
-16.629000 40.627000 0.349000 106.000000 79.000000 36.000000
-16.613000 40.625000 0.290000 103.000000 76.000000 33.000000
-16.571000 40.629000 0.688000 142.000000 101.000000 39.000000
-16.641000 40.629000 0.426000 109.000000 80.000000 38.000000
-16.573000 40.621000 0.114000 108.000000 81.000000 38.000000
-16.582000 40.624000 0.326000 110.000000 81.000000 41.000000
-16.606000 40.628000 0.473000 113.000000 82.000000 38.000000
-16.634000 40.625000 0.204000 100.000000 75.000000 34.000000
-16.631000 40.626000 0.291000 106.000000 78.000000 38.000000
-16.573000 40.622000 0.203000 105.000000 81.000000 35.000000
-16.577000 40.629000 0.644000 147.000000 105.000000 47.000000
-16.649000 40.630000 0.491000 112.000000 83.000000 41.000000
-16.586000 40.622000 0.167000 109.000000 80.000000 36.000000
-16.635000 40.626000 0.266000 103.000000 75.000000 35.000000
-16.672000 40.630000 0.407000 110.000000 81.000000 41.000000
-16.653000 40.630000 0.455000 111.000000 80.000000 36.000000
-16.606000 40.623000 0.158000 106.000000 79.000000 36.000000
-16.598000 40.623000 0.158000 109.000000 80.000000 36.000000
-16.583000 40.627000 0.529000 144.000000 105.000000 48.000000
-16.565000 40.627000 0.542000 133.000000 97.000000 39.000000
-16.740000 40.634000 0.400000 102.000000 76.000000 39.000000
-16.694000 40.632000 0.427000 110.000000 81.000000 41.000000
-16.563000 40.623000 0.301000 110.000000 80.000000 44.000000
-16.676000 40.633000 0.547000 127.000000 93.000000 47.000000
-16.705000 40.632000 0.412000 107.000000 77.000000 39.000000
-16.687000 40.632000 0.461000 114.000000 85.000000 45.000000
-16.612000 40.628000 0.447000 114.000000 82.000000 41.000000
-16.620000 40.630000 0.589000 144.000000 103.000000 47.000000
-16.571000 40.622000 0.196000 110.000000 83.000000 38.000000
-16.736000 40.632000 0.310000 98.000000 74.000000 38.000000
-16.602000 40.629000 0.564000 140.000000 99.000000 45.000000
-16.704000 40.631000 0.356000 102.000000 76.000000 39.000000
-16.644000 40.628000 0.376000 108.000000 78.000000 40.000000
-16.660000 40.629000 0.375000 107.000000 77.000000 39.000000
-16.556000 40.622000 0.278000 100.000000 76.000000 42.000000
-16.642000 40.627000 0.268000 102.000000 74.000000 34.000000
-16.622000 40.625000 0.228000 101.000000 78.000000 34.000000
-16.580000 40.625000 0.372000 107.000000 78.000000 36.000000
-16.580000 40.622000 0.155000 109.000000 80.000000 38.000000
-16.584000 40.624000 0.277000 113.000000 84.000000 42.000000
-16.573000 40.623000 0.287000 111.000000 79.000000 38.000000
-16.569000 40.625000 0.414000 107.000000 78.000000 36.000000
-16.681000 40.632000 0.472000 114.000000 85.000000 43.000000
-16.574000 40.625000 0.379000 109.000000 80.000000 36.000000
-16.702000 40.631000 0.353000 102.000000 76.000000 39.000000
-16.605000 40.630000 0.606000 142.000000 102.000000 43.000000
-16.580000 40.630000 0.681000 143.000000 101.000000 41.000000
-16.667000 40.628000 0.294000 103.000000 75.000000 38.000000
-16.640000 40.627000 0.281000 99.000000 71.000000 31.000000
-16.630000 40.625000 0.199000 99.000000 75.000000 31.000000
-16.617000 40.625000 0.215000 105.000000 78.000000 35.000000
-16.675000 40.630000 0.365000 104.000000 76.000000 39.000000
-16.675000 40.631000 0.451000 112.000000 83.000000 41.000000
-16.613000 40.625000 0.233000 106.000000 79.000000 36.000000
-16.621000 40.625000 0.223000 101.000000 78.000000 34.000000
-16.558000 40.621000 0.161000 108.000000 77.000000 30.000000
-16.622000 40.630000 0.583000 142.000000 101.000000 45.000000
-16.571000 40.621000 0.164000 111.000000 83.000000 36.000000
-16.758000 40.634000 0.377000 96.000000 72.000000 38.000000
-16.712000 40.632000 0.353000 99.000000 74.000000 34.000000
-16.564000 40.627000 0.536000 132.000000 92.000000 40.000000
-16.573000 40.627000 0.535000 140.000000 101.000000 46.000000
-16.657000 40.631000 0.490000 112.000000 83.000000 41.000000
-16.747000 40.634000 0.372000 97.000000 73.000000 39.000000
-16.676000 40.632000 0.482000 116.000000 84.000000 43.000000
-16.580000 40.626000 0.456000 119.000000 86.000000 41.000000
-16.575000 40.631000 0.761000 185.000000 144.000000 80.000000
-16.671000 40.632000 0.528000 124.000000 90.000000 45.000000
-16.569000 40.623000 0.248000 108.000000 79.000000 35.000000
-16.679000 40.629000 0.308000 99.000000 75.000000 37.000000
-16.642000 40.627000 0.266000 103.000000 75.000000 35.000000
-16.573000 40.627000 0.525000 141.000000 102.000000 45.000000
-16.611000 40.628000 0.484000 118.000000 87.000000 43.000000
-16.745000 40.634000 0.394000 100.000000 74.000000 39.000000
-16.672000 40.630000 0.385000 108.000000 78.000000 40.000000
-16.574000 40.624000 0.347000 108.000000 79.000000 35.000000
-16.580000 40.626000 0.473000 130.000000 96.000000 48.000000
-16.565000 40.626000 0.504000 141.000000 104.000000 52.000000
-16.581000 40.624000 0.308000 109.000000 79.000000 41.000000
-16.585000 40.628000 0.547000 142.000000 103.000000 48.000000
-16.566000 40.621000 0.181000 112.000000 81.000000 35.000000
-16.578000 40.623000 0.275000 115.000000 83.000000 42.000000
-16.604000 40.623000 0.171000 108.000000 81.000000 36.000000
-16.585000 40.624000 0.296000 110.000000 81.000000 37.000000
-16.597000 40.623000 0.192000 109.000000 82.000000 39.000000
-16.607000 40.626000 0.316000 103.000000 75.000000 35.000000
-16.714000 40.631000 0.329000 98.000000 74.000000 36.000000
-16.571000 40.624000 0.363000 109.000000 80.000000 38.000000
-16.568000 40.621000 0.113000 110.000000 77.000000 32.000000
-16.605000 40.627000 0.449000 115.000000 83.000000 42.000000
-16.644000 40.627000 0.269000 102.000000 74.000000 34.000000
-16.634000 40.626000 0.266000 103.000000 76.000000 33.000000
-16.627000 40.629000 0.447000 112.000000 81.000000 37.000000
-16.657000 40.627000 0.214000 102.000000 79.000000 37.000000
-16.686000 40.629000 0.285000 99.000000 73.000000 36.000000
-16.682000 40.631000 0.425000 112.000000 83.000000 43.000000
-16.641000 40.628000 0.372000 106.000000 77.000000 37.000000
-16.596000 40.624000 0.240000 108.000000 81.000000 38.000000
-16.671000 40.628000 0.237000 100.000000 74.000000 39.000000
-16.654000 40.631000 0.536000 123.000000 86.000000 41.000000
-16.667000 40.632000 0.552000 125.000000 91.000000 43.000000
-16.643000 40.626000 0.236000 102.000000 74.000000 34.000000
-16.673000 40.632000 0.511000 120.000000 87.000000 42.000000
-16.659000 40.632000 0.577000 135.000000 99.000000 49.000000
-16.731000 40.634000 0.433000 101.000000 77.000000 39.000000
-16.733000 40.633000 0.353000 97.000000 73.000000 35.000000
-16.557000 40.623000 0.303000 103.000000 77.000000 44.000000
-16.595000 40.627000 0.434000 110.000000 78.000000 37.000000
-16.606000 40.627000 0.421000 107.000000 78.000000 36.000000
-16.649000 40.631000 0.551000 129.000000 92.000000 47.000000
-16.626000 40.624000 0.159000 98.000000 74.000000 30.000000
-16.604000 40.628000 0.499000 132.000000 93.000000 52.000000
-16.663000 40.627000 0.213000 100.000000 77.000000 36.000000
-16.586000 40.625000 0.324000 109.000000 80.000000 40.000000
-16.568000 40.626000 0.484000 138.000000 102.000000 52.000000
-16.726000 40.634000 0.446000 106.000000 77.000000 43.000000
-16.731000 40.633000 0.399000 104.000000 76.000000 39.000000
-16.584000 40.630000 0.715000 141.000000 103.000000 41.000000
-16.728000 40.632000 0.343000 94.000000 70.000000 32.000000
-16.579000 40.630000 0.695000 141.000000 101.000000 39.000000
-16.569000 40.630000 0.718000 137.000000 99.000000 36.000000
-16.582000 40.627000 0.476000 133.000000 97.000000 49.000000
-16.671000 40.630000 0.387000 108.000000 78.000000 40.000000
-16.624000 40.627000 0.362000 106.000000 77.000000 37.000000
-16.564000 40.623000 0.274000 107.000000 78.000000 38.000000
-16.583000 40.628000 0.565000 144.000000 105.000000 48.000000
-16.748000 40.633000 0.347000 95.000000 71.000000 33.000000
-16.666000 40.629000 0.326000 106.000000 76.000000 38.000000
-16.719000 40.633000 0.420000 102.000000 77.000000 36.000000
-16.562000 40.623000 0.334000 99.000000 73.000000 36.000000
-16.598000 40.623000 0.154000 108.000000 81.000000 38.000000
-16.571000 40.623000 0.269000 109.000000 77.000000 36.000000
-16.624000 40.628000 0.452000 113.000000 82.000000 38.000000
-16.577000 40.624000 0.333000 107.000000 78.000000 36.000000
-16.592000 40.627000 0.486000 137.000000 101.000000 53.000000
-16.573000 40.624000 0.350000 106.000000 77.000000 35.000000
-16.737000 40.634000 0.395000 101.000000 75.000000 40.000000
-16.735000 40.632000 0.321000 96.000000 72.000000 36.000000
-16.588000 40.623000 0.238000 108.000000 81.000000 36.000000
-16.579000 40.628000 0.566000 143.000000 104.000000 47.000000
-16.669000 40.630000 0.379000 108.000000 78.000000 40.000000
-16.663000 40.632000 0.544000 127.000000 93.000000 45.000000
-16.673000 40.632000 0.490000 115.000000 83.000000 42.000000
-16.566000 40.620000 0.106000 105.000000 82.000000 40.000000
-16.733000 40.633000 0.396000 104.000000 76.000000 39.000000
-16.570000 40.625000 0.377000 109.000000 80.000000 36.000000
-16.715000 40.632000 0.380000 103.000000 74.000000 40.000000
-16.581000 40.629000 0.660000 146.000000 104.000000 44.000000
-16.606000 40.624000 0.227000 107.000000 80.000000 37.000000
-16.623000 40.627000 0.334000 107.000000 79.000000 39.000000
-16.585000 40.624000 0.259000 110.000000 81.000000 37.000000
-16.703000 40.632000 0.390000 106.000000 78.000000 39.000000
-16.650000 40.632000 0.594000 140.000000 100.000000 49.000000
-16.648000 40.629000 0.417000 110.000000 81.000000 39.000000
-16.582000 40.629000 0.665000 146.000000 104.000000 44.000000
-16.565000 40.627000 0.572000 129.000000 93.000000 33.000000
-16.614000 40.626000 0.327000 107.000000 79.000000 39.000000
-16.720000 40.631000 0.306000 95.000000 71.000000 35.000000
-16.665000 40.629000 0.322000 106.000000 76.000000 40.000000
-16.675000 40.630000 0.410000 111.000000 82.000000 42.000000
-16.726000 40.633000 0.405000 104.000000 76.000000 37.000000
-16.712000 40.632000 0.380000 103.000000 74.000000 40.000000
-16.579000 40.630000 0.738000 139.000000 99.000000 38.000000
-16.636000 40.627000 0.282000 103.000000 75.000000 35.000000
-16.653000 40.627000 0.277000 104.000000 76.000000 37.000000
-16.717000 40.631000 0.331000 98.000000 74.000000 36.000000
-16.617000 40.625000 0.231000 103.000000 76.000000 33.000000
-16.641000 40.630000 0.500000 113.000000 84.000000 42.000000
-16.645000 40.627000 0.258000 102.000000 74.000000 34.000000
-16.606000 40.631000 0.661000 139.000000 101.000000 39.000000
-16.751000 40.634000 0.354000 95.000000 73.000000 36.000000
-16.647000 40.631000 0.565000 135.000000 97.000000 50.000000
-16.691000 40.630000 0.296000 97.000000 73.000000 37.000000
-16.597000 40.629000 0.557000 141.000000 102.000000 47.000000
-16.643000 40.631000 0.550000 134.000000 96.000000 49.000000
-16.619000 40.627000 0.392000 106.000000 78.000000 38.000000
-16.671000 40.632000 0.532000 125.000000 91.000000 45.000000
-16.578000 40.626000 0.452000 119.000000 86.000000 41.000000
-16.657000 40.628000 0.334000 104.000000 74.000000 36.000000
-16.668000 40.629000 0.354000 105.000000 77.000000 40.000000
-16.665000 40.628000 0.290000 102.000000 76.000000 39.000000
-16.612000 40.626000 0.357000 109.000000 80.000000 40.000000
-16.597000 40.625000 0.338000 107.000000 79.000000 39.000000
-16.654000 40.628000 0.313000 102.000000 76.000000 39.000000
-16.743000 40.634000 0.403000 101.000000 75.000000 38.000000
-16.639000 40.629000 0.434000 108.000000 79.000000 37.000000
-16.687000 40.631000 0.369000 102.000000 76.000000 39.000000
-16.668000 40.630000 0.409000 110.000000 81.000000 41.000000
-16.670000 40.630000 0.393000 108.000000 78.000000 40.000000
-16.624000 40.625000 0.215000 102.000000 78.000000 34.000000
-16.739000 40.633000 0.379000 98.000000 72.000000 39.000000
-16.622000 40.624000 0.189000 103.000000 76.000000 33.000000
-16.604000 40.630000 0.646000 142.000000 103.000000 44.000000
-16.625000 40.631000 0.624000 143.000000 104.000000 47.000000
-16.598000 40.630000 0.653000 141.000000 101.000000 42.000000
-16.588000 40.623000 0.189000 108.000000 81.000000 38.000000
-16.715000 40.632000 0.373000 100.000000 74.000000 39.000000
-16.732000 40.633000 0.381000 98.000000 72.000000 39.000000
-16.648000 40.631000 0.520000 115.000000 82.000000 37.000000
-16.700000 40.632000 0.430000 107.000000 79.000000 39.000000
-16.691000 40.630000 0.295000 97.000000 73.000000 37.000000
-16.583000 40.626000 0.439000 111.000000 79.000000 38.000000
-16.718000 40.633000 0.455000 108.000000 78.000000 44.000000
-16.591000 40.626000 0.367000 108.000000 79.000000 39.000000
-16.626000 40.625000 0.240000 102.000000 78.000000 34.000000
-16.577000 40.629000 0.641000 148.000000 106.000000 48.000000
-16.618000 40.624000 0.206000 101.000000 74.000000 31.000000
-16.645000 40.626000 0.211000 100.000000 75.000000 34.000000
-16.710000 40.632000 0.390000 104.000000 76.000000 37.000000
-16.577000 40.624000 0.316000 108.000000 78.000000 40.000000
-16.570000 40.626000 0.463000 128.000000 92.000000 44.000000
-16.643000 40.630000 0.475000 111.000000 79.000000 38.000000
-16.600000 40.623000 0.194000 106.000000 82.000000 38.000000
-16.599000 40.631000 0.711000 140.000000 101.000000 42.000000
-16.575000 40.630000 0.693000 144.000000 104.000000 42.000000
-16.673000 40.628000 0.254000 104.000000 76.000000 39.000000
-16.648000 40.629000 0.421000 110.000000 81.000000 39.000000
-16.583000 40.630000 0.707000 142.000000 104.000000 42.000000
-16.630000 40.629000 0.488000 111.000000 82.000000 40.000000
-16.580000 40.625000 0.393000 107.000000 78.000000 34.000000
-16.730000 40.633000 0.392000 103.000000 75.000000 38.000000
-16.663000 40.628000 0.263000 103.000000 75.000000 35.000000
-16.564000 40.623000 0.291000 107.000000 77.000000 39.000000
-16.588000 40.626000 0.411000 109.000000 80.000000 38.000000
-16.604000 40.631000 0.693000 144.000000 100.000000 39.000000
-16.622000 40.631000 0.629000 141.000000 102.000000 45.000000
-16.577000 40.621000 0.117000 112.000000 85.000000 42.000000
-16.569000 40.629000 0.671000 144.000000 104.000000 43.000000
-16.733000 40.634000 0.428000 101.000000 77.000000 39.000000
-16.593000 40.625000 0.316000 109.000000 80.000000 40.000000
-16.618000 40.627000 0.394000 105.000000 77.000000 37.000000
-16.625000 40.630000 0.570000 140.000000 101.000000 46.000000
-16.628000 40.625000 0.200000 102.000000 75.000000 32.000000
-16.660000 40.629000 0.352000 104.000000 76.000000 37.000000
-16.724000 40.633000 0.424000 101.000000 78.000000 36.000000
-16.624000 40.626000 0.314000 105.000000 77.000000 38.000000
-16.616000 40.629000 0.527000 137.000000 97.000000 48.000000
-16.588000 40.623000 0.209000 109.000000 82.000000 37.000000
-16.676000 40.631000 0.443000 112.000000 80.000000 39.000000
-16.701000 40.630000 0.287000 97.000000 71.000000 36.000000
-16.662000 40.628000 0.322000 103.000000 75.000000 38.000000
-16.581000 40.628000 0.602000 145.000000 106.000000 49.000000
