-19.916000 37.317000 0.471000 46.000000 44.000000 45.000000
-19.987000 37.228000 0.453000 68.000000 64.000000 65.000000
-19.968000 37.186000 0.442000 54.000000 55.000000 50.000000
-19.925000 37.306000 0.468000 44.000000 42.000000 43.000000
-19.969000 37.267000 0.461000 63.000000 59.000000 60.000000
-19.983000 37.210000 0.448000 56.000000 55.000000 53.000000
-19.943000 37.291000 0.466000 51.000000 49.000000 50.000000
-19.976000 37.211000 0.448000 50.000000 49.000000 47.000000
-20.027000 36.963000 0.501000 24.000000 30.000000 28.000000
-19.995000 36.977000 0.477000 75.000000 75.000000 63.000000
-20.042000 36.966000 0.509000 56.000000 62.000000 60.000000
-20.013000 36.958000 0.494000 64.000000 65.000000 57.000000
-19.991000 36.994000 0.469000 96.000000 94.000000 82.000000
-20.011000 36.971000 0.489000 38.000000 41.000000 34.000000
-19.992000 36.954000 0.482000 148.000000 147.000000 126.000000
-20.004000 36.987000 0.480000 35.000000 37.000000 32.000000
-19.987000 36.966000 0.475000 141.000000 142.000000 124.000000
-20.014000 36.978000 0.489000 28.000000 33.000000 27.000000
-20.028000 36.974000 0.499000 51.000000 54.000000 47.000000
-20.001000 36.988000 0.477000 37.000000 39.000000 36.000000
-20.007000 36.961000 0.490000 88.000000 90.000000 76.000000
-19.986000 36.994000 0.466000 118.000000 116.000000 103.000000
-19.989000 36.977000 0.473000 114.000000 114.000000 102.000000
-20.031000 36.963000 0.504000 27.000000 33.000000 29.000000
-20.015000 36.958000 0.495000 64.000000 65.000000 57.000000
-20.040000 36.974000 0.506000 89.000000 95.000000 83.000000
-20.024000 36.956000 0.501000 34.000000 39.000000 32.000000
-20.007000 36.968000 0.488000 54.000000 57.000000 48.000000
-20.040000 36.964000 0.509000 36.000000 42.000000 40.000000
-20.032000 36.959000 0.506000 26.000000 30.000000 31.000000
-20.036000 36.969000 0.505000 51.000000 58.000000 51.000000
-20.014000 36.966000 0.493000 46.000000 49.000000 42.000000
-19.975000 36.992000 0.460000 125.000000 123.000000 108.000000
-19.990000 36.991000 0.470000 90.000000 90.000000 82.000000
-20.011000 36.967000 0.490000 54.000000 57.000000 48.000000
-19.983000 36.983000 0.468000 136.000000 134.000000 121.000000
-19.999000 36.964000 0.484000 132.000000 134.000000 121.000000
-19.991000 36.968000 0.478000 138.000000 137.000000 119.000000
-19.982000 37.000000 0.463000 137.000000 135.000000 122.000000
-20.043000 36.988000 0.520000 155.000000 156.000000 138.000000
-20.032000 36.981000 0.503000 98.000000 100.000000 86.000000
-19.982000 37.030000 0.486000 73.000000 69.000000 60.000000
-19.970000 37.073000 0.507000 72.000000 73.000000 68.000000
-20.016000 37.000000 0.500000 150.000000 151.000000 133.000000
-20.002000 37.048000 0.522000 94.000000 89.000000 83.000000
-19.988000 37.022000 0.487000 107.000000 103.000000 92.000000
-19.975000 37.080000 0.517000 85.000000 86.000000 80.000000
-20.028000 37.000000 0.513000 125.000000 126.000000 110.000000
-20.031000 37.006000 0.521000 116.000000 117.000000 101.000000
-19.999000 37.049000 0.519000 94.000000 89.000000 86.000000
-19.963000 37.013000 0.452000 129.000000 126.000000 109.000000
-19.978000 37.036000 0.487000 62.000000 58.000000 49.000000
-19.973000 37.055000 0.495000 63.000000 60.000000 53.000000
-19.960000 37.022000 0.457000 133.000000 130.000000 115.000000
-19.979000 37.027000 0.480000 52.000000 45.000000 39.000000
-20.043000 36.974000 0.508000 92.000000 98.000000 86.000000
-20.029000 36.989000 0.505000 141.000000 140.000000 119.000000
-20.002000 37.017000 0.498000 128.000000 125.000000 110.000000
-19.999000 37.044000 0.515000 86.000000 83.000000 74.000000
-20.000000 36.996000 0.478000 36.000000 37.000000 32.000000
-20.008000 37.032000 0.516000 86.000000 82.000000 79.000000
-20.004000 37.004000 0.489000 116.000000 110.000000 96.000000
-19.978000 37.052000 0.499000 70.000000 65.000000 59.000000
-19.971000 37.012000 0.460000 130.000000 126.000000 114.000000
-20.017000 36.992000 0.495000 119.000000 121.000000 107.000000
-20.056000 36.973000 0.522000 147.000000 150.000000 121.000000
-19.993000 37.038000 0.504000 63.000000 60.000000 51.000000
-19.964000 37.026000 0.463000 123.000000 119.000000 108.000000
-19.977000 37.038000 0.487000 62.000000 58.000000 49.000000
-20.013000 37.012000 0.506000 101.000000 101.000000 91.000000
-19.972000 37.054000 0.493000 61.000000 58.000000 53.000000
-19.981000 37.023000 0.479000 50.000000 45.000000 39.000000
-19.974000 37.076000 0.513000 77.000000 75.000000 76.000000
-19.977000 37.043000 0.491000 56.000000 51.000000 45.000000
-19.988000 37.051000 0.509000 80.000000 76.000000 67.000000
-19.981000 37.048000 0.499000 71.000000 67.000000 58.000000
-20.045000 36.978000 0.514000 134.000000 135.000000 117.000000
-19.962000 37.033000 0.466000 91.000000 84.000000 78.000000
-19.974000 37.039000 0.484000 45.000000 38.000000 32.000000
-19.990000 37.045000 0.506000 77.000000 72.000000 66.000000
-20.030000 37.010000 0.522000 108.000000 109.000000 93.000000
-19.976000 37.046000 0.492000 61.000000 56.000000 50.000000
-19.962000 37.032000 0.465000 99.000000 92.000000 84.000000
-19.982000 37.044000 0.496000 68.000000 64.000000 55.000000
-19.988000 37.059000 0.515000 93.000000 90.000000 81.000000
-20.012000 36.990000 0.488000 51.000000 54.000000 45.000000
-20.013000 37.011000 0.506000 101.000000 101.000000 91.000000
-20.051000 36.978000 0.521000 149.000000 151.000000 130.000000
-19.985000 37.011000 0.475000 41.000000 40.000000 36.000000
-20.012000 37.004000 0.498000 142.000000 143.000000 127.000000
-19.973000 37.046000 0.489000 48.000000 43.000000 39.000000
-20.026000 37.009000 0.517000 94.000000 94.000000 86.000000
-19.995000 37.045000 0.511000 82.000000 83.000000 69.000000
-19.959000 37.015000 0.450000 127.000000 125.000000 110.000000
-20.039000 36.991000 0.518000 146.000000 147.000000 129.000000
-20.009000 37.008000 0.498000 143.000000 137.000000 123.000000
-20.000000 37.004000 0.486000 77.000000 73.000000 62.000000
-20.002000 36.995000 0.481000 39.000000 42.000000 35.000000
-20.023000 36.996000 0.505000 154.000000 151.000000 132.000000
-20.053000 36.972000 0.518000 140.000000 144.000000 119.000000
-19.984000 37.021000 0.482000 62.000000 57.000000 51.000000
-19.979000 37.024000 0.478000 46.000000 41.000000 37.000000
-19.986000 37.048000 0.505000 75.000000 70.000000 64.000000
-19.986000 37.016000 0.480000 43.000000 40.000000 35.000000
-19.993000 37.047000 0.511000 83.000000 84.000000 70.000000
-19.993000 37.016000 0.487000 107.000000 103.000000 91.000000
-20.014000 36.996000 0.494000 133.000000 135.000000 121.000000
-20.004000 37.032000 0.512000 68.000000 69.000000 55.000000
-19.989000 37.048000 0.508000 77.000000 72.000000 66.000000
-20.063000 36.968000 0.525000 149.000000 149.000000 137.000000
-20.017000 36.996000 0.498000 148.000000 149.000000 133.000000
-20.002000 37.022000 0.502000 94.000000 92.000000 80.000000
-19.982000 37.041000 0.494000 74.000000 70.000000 61.000000
-19.969000 37.025000 0.468000 83.000000 79.000000 70.000000
-19.971000 37.072000 0.507000 72.000000 71.000000 66.000000
-19.949000 37.104000 0.466000 47.000000 51.000000 50.000000
-19.962000 37.040000 0.472000 34.000000 29.000000 26.000000
-19.938000 37.181000 0.474000 62.000000 62.000000 64.000000
-19.958000 37.077000 0.478000 55.000000 57.000000 54.000000
-19.959000 37.123000 0.501000 78.000000 72.000000 74.000000
-19.972000 37.091000 0.518000 86.000000 88.000000 85.000000
-19.934000 37.233000 0.486000 64.000000 64.000000 66.000000
-19.939000 37.208000 0.488000 67.000000 67.000000 69.000000
-19.955000 37.150000 0.502000 76.000000 76.000000 74.000000
-19.930000 37.224000 0.472000 54.000000 56.000000 55.000000
-19.956000 37.098000 0.482000 58.000000 59.000000 63.000000
-19.917000 37.302000 0.472000 38.000000 41.000000 34.000000
-19.961000 37.110000 0.499000 72.000000 70.000000 73.000000
-19.935000 37.233000 0.489000 66.000000 66.000000 66.000000
-19.950000 37.123000 0.478000 59.000000 58.000000 63.000000
-19.950000 37.151000 0.488000 67.000000 65.000000 66.000000
-19.956000 37.107000 0.485000 63.000000 62.000000 67.000000
-19.948000 37.078000 0.452000 54.000000 55.000000 50.000000
-19.931000 37.217000 0.471000 53.000000 53.000000 53.000000
-19.915000 37.312000 0.473000 42.000000 39.000000 50.000000
-19.961000 37.127000 0.506000 78.000000 76.000000 79.000000
-19.919000 37.297000 0.475000 44.000000 45.000000 50.000000
-19.961000 37.035000 0.468000 67.000000 60.000000 54.000000
-19.930000 37.249000 0.482000 59.000000 60.000000 62.000000
-19.928000 37.227000 0.467000 47.000000 49.000000 48.000000
-19.967000 37.084000 0.502000 67.000000 69.000000 66.000000
-19.922000 37.271000 0.473000 45.000000 47.000000 44.000000
-19.966000 37.067000 0.494000 66.000000 65.000000 61.000000
-19.949000 37.123000 0.475000 57.000000 56.000000 61.000000
-19.941000 37.205000 0.490000 71.000000 71.000000 73.000000
-19.971000 37.084000 0.513000 79.000000 82.000000 75.000000
-19.963000 37.081000 0.492000 63.000000 65.000000 62.000000
-19.923000 37.273000 0.475000 48.000000 50.000000 47.000000
-19.926000 37.254000 0.474000 50.000000 48.000000 49.000000
-19.933000 37.213000 0.474000 58.000000 58.000000 58.000000
-19.945000 37.186000 0.493000 72.000000 72.000000 74.000000
-19.944000 37.183000 0.488000 70.000000 68.000000 69.000000
-19.958000 37.075000 0.477000 54.000000 56.000000 53.000000
-19.943000 37.134000 0.464000 49.000000 49.000000 51.000000
-19.958000 37.107000 0.492000 66.000000 66.000000 68.000000
-19.935000 37.217000 0.481000 63.000000 61.000000 64.000000
-19.951000 37.113000 0.477000 59.000000 58.000000 63.000000
-19.923000 37.273000 0.475000 47.000000 49.000000 46.000000
-19.937000 37.200000 0.480000 65.000000 63.000000 66.000000
-19.929000 37.247000 0.479000 57.000000 58.000000 53.000000
-19.947000 37.192000 0.499000 79.000000 79.000000 79.000000
-19.941000 37.140000 0.461000 49.000000 49.000000 51.000000
-19.923000 37.274000 0.477000 46.000000 50.000000 53.000000
-19.945000 37.168000 0.485000 68.000000 66.000000 71.000000
-19.944000 37.177000 0.487000 69.000000 67.000000 72.000000
-19.951000 37.052000 0.449000 32.000000 26.000000 26.000000
-19.962000 37.064000 0.481000 53.000000 52.000000 48.000000
-19.960000 37.133000 0.508000 79.000000 79.000000 81.000000
-19.937000 37.213000 0.485000 66.000000 66.000000 68.000000
-19.936000 37.161000 0.460000 48.000000 48.000000 46.000000
-19.954000 37.154000 0.502000 77.000000 77.000000 77.000000
-19.965000 37.051000 0.483000 38.000000 34.000000 31.000000
-19.951000 37.164000 0.498000 73.000000 73.000000 73.000000
-19.961000 37.120000 0.504000 80.000000 74.000000 76.000000
-19.950000 37.165000 0.495000 72.000000 70.000000 71.000000
-19.963000 37.079000 0.490000 61.000000 63.000000 60.000000
-19.953000 37.079000 0.467000 47.000000 49.000000 46.000000
-19.965000 37.075000 0.493000 61.000000 63.000000 60.000000
-19.932000 37.192000 0.462000 53.000000 53.000000 51.000000
-19.929000 37.237000 0.474000 57.000000 52.000000 56.000000
-19.956000 37.146000 0.502000 76.000000 76.000000 74.000000
-19.922000 37.277000 0.474000 46.000000 48.000000 45.000000
-19.947000 37.176000 0.493000 72.000000 70.000000 71.000000
-19.953000 37.064000 0.460000 37.000000 36.000000 34.000000
-19.951000 37.111000 0.474000 57.000000 58.000000 60.000000
-19.927000 37.243000 0.473000 54.000000 49.000000 55.000000
-19.941000 37.175000 0.476000 64.000000 62.000000 67.000000
-19.947000 37.088000 0.455000 44.000000 44.000000 42.000000
-19.962000 37.071000 0.485000 56.000000 57.000000 52.000000
-19.955000 37.032000 0.451000 96.000000 89.000000 81.000000
-19.962000 37.107000 0.502000 75.000000 73.000000 76.000000
-19.954000 37.131000 0.491000 69.000000 67.000000 70.000000
-19.948000 37.068000 0.449000 54.000000 53.000000 51.000000
-19.960000 37.032000 0.461000 120.000000 113.000000 107.000000
-19.947000 37.185000 0.496000 75.000000 75.000000 77.000000
-19.950000 37.139000 0.485000 64.000000 62.000000 65.000000
-19.935000 37.223000 0.484000 65.000000 63.000000 66.000000
-19.952000 37.133000 0.487000 66.000000 64.000000 67.000000
-19.951000 37.063000 0.453000 37.000000 36.000000 34.000000
-19.953000 37.068000 0.461000 41.000000 41.000000 39.000000
-19.932000 37.216000 0.473000 57.000000 57.000000 57.000000
-19.957000 37.064000 0.468000 43.000000 43.000000 41.000000
-19.967000 37.112000 0.515000 83.000000 81.000000 84.000000
-19.967000 37.089000 0.506000 69.000000 71.000000 68.000000
-19.943000 37.105000 0.453000 50.000000 54.000000 39.000000
-19.965000 37.072000 0.493000 62.000000 63.000000 58.000000
-19.921000 37.279000 0.474000 46.000000 48.000000 45.000000
-19.967000 37.087000 0.505000 68.000000 70.000000 67.000000
-19.939000 37.216000 0.490000 69.000000 69.000000 71.000000
-19.950000 37.137000 0.483000 62.000000 61.000000 66.000000
-19.953000 37.070000 0.462000 41.000000 41.000000 39.000000
-19.947000 37.093000 0.457000 39.000000 39.000000 37.000000
-19.933000 37.188000 0.463000 54.000000 54.000000 52.000000
-19.955000 37.066000 0.464000 39.000000 39.000000 37.000000
-19.945000 37.195000 0.496000 75.000000 75.000000 77.000000
-19.945000 37.198000 0.497000 77.000000 77.000000 77.000000
-19.955000 37.021000 0.446000 124.000000 121.000000 106.000000
-19.959000 37.093000 0.487000 61.000000 62.000000 66.000000
-19.935000 37.210000 0.478000 62.000000 62.000000 64.000000
-19.951000 37.145000 0.489000 68.000000 66.000000 67.000000
-19.952000 37.165000 0.502000 77.000000 79.000000 78.000000
-19.933000 37.177000 0.459000 51.000000 53.000000 50.000000
-19.955000 37.103000 0.480000 58.000000 59.000000 63.000000
-19.948000 37.082000 0.455000 45.000000 45.000000 43.000000
-19.955000 37.146000 0.500000 76.000000 76.000000 74.000000
-19.950000 37.150000 0.489000 67.000000 65.000000 66.000000
-19.937000 37.171000 0.466000 58.000000 58.000000 58.000000
-19.943000 37.153000 0.472000 59.000000 58.000000 63.000000
-19.945000 37.125000 0.465000 48.000000 50.000000 49.000000
-19.962000 37.076000 0.488000 59.000000 61.000000 58.000000
-19.942000 37.158000 0.473000 60.000000 60.000000 62.000000
-19.948000 37.135000 0.477000 59.000000 58.000000 64.000000
-19.944000 37.202000 0.496000 76.000000 76.000000 76.000000
-19.950000 37.139000 0.485000 64.000000 62.000000 65.000000
-19.946000 37.121000 0.465000 49.000000 51.000000 50.000000
-19.959000 37.024000 0.456000 129.000000 126.000000 111.000000
-20.335000 37.373000 0.426000 13.000000 13.000000 11.000000
-20.356000 37.362000 0.415000 31.000000 31.000000 23.000000
-20.330000 37.372000 0.425000 11.000000 11.000000 9.000000
-20.284000 37.371000 0.424000 10.000000 10.000000 12.000000
-20.283000 37.368000 0.421000 0.000000 0.000000 2.000000
-20.343000 37.360000 0.414000 11.000000 9.000000 10.000000
-20.304000 37.373000 0.425000 5.000000 9.000000 8.000000
-20.339000 37.360000 0.414000 11.000000 9.000000 10.000000
-20.346000 37.360000 0.413000 12.000000 10.000000 11.000000
-20.319000 37.366000 0.419000 7.000000 7.000000 9.000000
-20.319000 37.370000 0.423000 8.000000 8.000000 8.000000
-20.352000 37.354000 0.408000 19.000000 20.000000 14.000000
-20.344000 37.360000 0.414000 11.000000 9.000000 10.000000
-20.359000 37.373000 0.426000 22.000000 18.000000 15.000000
-20.354000 37.359000 0.413000 33.000000 32.000000 27.000000
-20.357000 37.362000 0.415000 31.000000 31.000000 23.000000
-20.358000 37.374000 0.427000 13.000000 9.000000 6.000000
-20.357000 37.374000 0.427000 13.000000 9.000000 6.000000
-20.294000 37.398000 0.460000 92.000000 89.000000 84.000000
-20.284000 37.394000 0.446000 90.000000 86.000000 83.000000
-20.351000 37.396000 0.469000 78.000000 78.000000 70.000000
-20.257000 37.402000 0.463000 89.000000 88.000000 84.000000
-20.344000 37.408000 0.505000 86.000000 81.000000 75.000000
-20.347000 37.399000 0.476000 78.000000 75.000000 68.000000
-20.262000 37.395000 0.443000 86.000000 82.000000 79.000000
-20.322000 37.405000 0.490000 79.000000 76.000000 69.000000
-20.361000 37.397000 0.474000 79.000000 74.000000 68.000000
-20.309000 37.389000 0.438000 92.000000 88.000000 85.000000
-20.360000 37.392000 0.458000 80.000000 79.000000 74.000000
-20.292000 37.406000 0.485000 85.000000 82.000000 75.000000
-20.343000 37.399000 0.476000 74.000000 74.000000 66.000000
-20.335000 37.409000 0.507000 86.000000 81.000000 75.000000
-20.334000 37.388000 0.441000 90.000000 86.000000 83.000000
-20.283000 37.394000 0.447000 90.000000 86.000000 83.000000
-20.301000 37.397000 0.460000 91.000000 88.000000 83.000000
-20.276000 37.403000 0.472000 92.000000 89.000000 84.000000
-20.197000 37.397000 0.436000 85.000000 81.000000 80.000000
-20.309000 37.391000 0.444000 90.000000 86.000000 83.000000
-20.234000 37.403000 0.462000 84.000000 83.000000 79.000000
-20.247000 37.405000 0.471000 93.000000 92.000000 87.000000
-20.334000 37.411000 0.513000 94.000000 89.000000 83.000000
-20.331000 37.408000 0.501000 82.000000 77.000000 71.000000
-20.310000 37.394000 0.453000 91.000000 87.000000 84.000000
-20.189000 37.399000 0.438000 84.000000 80.000000 79.000000
-20.301000 37.408000 0.495000 80.000000 77.000000 70.000000
-20.279000 37.395000 0.447000 89.000000 85.000000 82.000000
-20.323000 37.407000 0.495000 77.000000 72.000000 66.000000
-20.334000 37.400000 0.477000 73.000000 73.000000 65.000000
-20.354000 37.408000 0.508000 91.000000 88.000000 81.000000
-20.223000 37.399000 0.447000 83.000000 79.000000 76.000000
-20.296000 37.396000 0.454000 94.000000 90.000000 87.000000
-20.317000 37.394000 0.454000 90.000000 86.000000 83.000000
-20.340000 37.411000 0.514000 95.000000 90.000000 84.000000
-20.331000 37.410000 0.509000 83.000000 78.000000 72.000000
-20.298000 37.404000 0.480000 87.000000 84.000000 77.000000
-20.350000 37.399000 0.478000 79.000000 76.000000 69.000000
-20.330000 37.408000 0.501000 82.000000 77.000000 71.000000
-20.192000 37.397000 0.434000 85.000000 81.000000 80.000000
-20.328000 37.395000 0.459000 91.000000 87.000000 84.000000
-20.280000 37.398000 0.456000 96.000000 92.000000 89.000000
-20.366000 37.397000 0.476000 79.000000 74.000000 68.000000
-20.307000 37.404000 0.483000 81.000000 81.000000 73.000000
-20.307000 37.401000 0.475000 87.000000 87.000000 79.000000
-20.234000 37.404000 0.466000 86.000000 85.000000 81.000000
-20.310000 37.410000 0.502000 81.000000 78.000000 71.000000
-20.347000 37.390000 0.448000 89.000000 85.000000 82.000000
-20.289000 37.395000 0.450000 92.000000 88.000000 85.000000
-20.292000 37.397000 0.457000 96.000000 93.000000 88.000000
-20.331000 37.393000 0.456000 91.000000 87.000000 84.000000
-20.315000 37.408000 0.496000 84.000000 81.000000 74.000000
-20.298000 37.407000 0.491000 82.000000 79.000000 72.000000
-20.272000 37.407000 0.483000 92.000000 87.000000 81.000000
-20.334000 37.390000 0.445000 91.000000 87.000000 84.000000
-20.326000 37.411000 0.511000 88.000000 83.000000 77.000000
-20.334000 37.405000 0.492000 77.000000 72.000000 66.000000
-20.334000 37.390000 0.447000 90.000000 86.000000 83.000000
-20.308000 37.393000 0.448000 91.000000 87.000000 84.000000
-20.341000 37.390000 0.447000 89.000000 85.000000 82.000000
-20.275000 37.399000 0.461000 99.000000 96.000000 91.000000
-20.340000 37.386000 0.434000 93.000000 89.000000 86.000000
-20.269000 37.391000 0.432000 85.000000 81.000000 78.000000
-20.355000 37.401000 0.486000 81.000000 76.000000 70.000000
-20.178000 37.399000 0.437000 79.000000 77.000000 78.000000
-20.264000 37.407000 0.482000 94.000000 91.000000 86.000000
-20.334000 37.404000 0.491000 76.000000 71.000000 65.000000
-20.264000 37.399000 0.458000 89.000000 88.000000 84.000000
-20.281000 37.397000 0.455000 93.000000 89.000000 86.000000
-20.341000 37.407000 0.501000 82.000000 77.000000 71.000000
-20.304000 37.410000 0.502000 87.000000 84.000000 77.000000
-20.358000 37.406000 0.504000 87.000000 84.000000 77.000000
-20.354000 37.396000 0.469000 78.000000 78.000000 70.000000
-20.344000 37.413000 0.521000 126.000000 122.000000 111.000000
-20.290000 37.394000 0.449000 92.000000 88.000000 85.000000
-20.241000 37.399000 0.451000 84.000000 80.000000 77.000000
-20.233000 37.395000 0.436000 86.000000 80.000000 80.000000
-20.294000 37.392000 0.443000 92.000000 88.000000 85.000000
-20.338000 37.390000 0.446000 89.000000 85.000000 82.000000
-20.331000 37.398000 0.469000 82.000000 83.000000 75.000000
-20.300000 37.408000 0.494000 80.000000 77.000000 70.000000
-20.247000 37.397000 0.448000 85.000000 81.000000 78.000000
-20.357000 37.389000 0.448000 90.000000 86.000000 83.000000
-20.240000 37.396000 0.441000 85.000000 81.000000 78.000000
-20.243000 37.394000 0.437000 84.000000 80.000000 77.000000
-20.341000 37.412000 0.517000 102.000000 98.000000 89.000000
-20.334000 37.410000 0.508000 84.000000 79.000000 73.000000
-20.347000 37.394000 0.461000 84.000000 83.000000 78.000000
-20.346000 37.406000 0.499000 84.000000 79.000000 73.000000
-20.341000 37.394000 0.460000 89.000000 85.000000 82.000000
-20.320000 37.396000 0.461000 91.000000 87.000000 84.000000
-20.342000 37.412000 0.518000 102.000000 98.000000 89.000000
-20.302000 37.396000 0.456000 91.000000 88.000000 83.000000
-20.326000 37.391000 0.448000 91.000000 87.000000 84.000000
-20.286000 37.400000 0.465000 93.000000 90.000000 85.000000
-20.289000 37.390000 0.435000 89.000000 85.000000 82.000000
-20.250000 37.401000 0.459000 87.000000 86.000000 82.000000
-20.258000 37.394000 0.440000 85.000000 81.000000 78.000000
-20.306000 37.382000 0.429000 88.000000 84.000000 81.000000
-20.316000 37.382000 0.430000 89.000000 89.000000 87.000000
-20.337000 37.383000 0.431000 94.000000 93.000000 91.000000
-20.235000 37.379000 0.426000 8.000000 7.000000 13.000000
-20.173000 37.396000 0.431000 82.000000 82.000000 82.000000
-20.252000 37.373000 0.424000 12.000000 11.000000 19.000000
-20.234000 37.380000 0.427000 8.000000 7.000000 13.000000
-20.302000 37.377000 0.427000 6.000000 11.000000 7.000000
-20.325000 37.378000 0.428000 92.000000 92.000000 90.000000
-20.201000 37.389000 0.429000 79.000000 75.000000 74.000000
-20.193000 37.392000 0.430000 80.000000 78.000000 79.000000
-20.261000 37.390000 0.432000 83.000000 82.000000 80.000000
-20.339000 37.378000 0.429000 82.000000 82.000000 80.000000
-20.335000 37.375000 0.428000 15.000000 15.000000 13.000000
-20.300000 37.387000 0.432000 89.000000 85.000000 82.000000
-20.277000 37.382000 0.429000 89.000000 89.000000 87.000000
-20.214000 37.392000 0.431000 73.000000 73.000000 71.000000
-20.249000 37.376000 0.425000 6.000000 5.000000 13.000000
-20.225000 37.390000 0.430000 77.000000 77.000000 69.000000
-20.257000 37.390000 0.431000 84.000000 79.000000 76.000000
-20.255000 37.391000 0.432000 85.000000 79.000000 81.000000
-20.213000 37.385000 0.428000 16.000000 15.000000 20.000000
-20.279000 37.381000 0.428000 89.000000 89.000000 87.000000
-20.243000 37.389000 0.431000 86.000000 83.000000 76.000000
-20.271000 37.390000 0.432000 86.000000 82.000000 79.000000
-20.260000 37.371000 0.424000 10.000000 6.000000 5.000000
-20.163000 37.408000 0.455000 84.000000 80.000000 77.000000
-20.207000 37.423000 0.505000 95.000000 92.000000 85.000000
-20.180000 37.426000 0.506000 93.000000 90.000000 83.000000
-20.183000 37.424000 0.501000 97.000000 94.000000 85.000000
-20.159000 37.434000 0.520000 98.000000 95.000000 86.000000
-20.307000 37.416000 0.517000 82.000000 79.000000 72.000000
-20.294000 37.417000 0.515000 80.000000 80.000000 72.000000
-20.186000 37.408000 0.463000 90.000000 86.000000 83.000000
-20.280000 37.422000 0.524000 73.000000 72.000000 67.000000
-20.148000 37.419000 0.478000 91.000000 88.000000 83.000000
-20.269000 37.412000 0.496000 87.000000 84.000000 79.000000
-20.296000 37.417000 0.518000 80.000000 80.000000 72.000000
-20.229000 37.422000 0.510000 89.000000 86.000000 79.000000
-20.331000 37.414000 0.518000 84.000000 79.000000 73.000000
-20.195000 37.414000 0.480000 90.000000 87.000000 82.000000
-20.248000 37.418000 0.504000 87.000000 84.000000 79.000000
-20.232000 37.418000 0.500000 95.000000 92.000000 87.000000
-20.205000 37.411000 0.475000 86.000000 82.000000 79.000000
-20.245000 37.415000 0.496000 91.000000 88.000000 83.000000
-20.238000 37.409000 0.480000 90.000000 89.000000 84.000000
-20.206000 37.416000 0.488000 92.000000 89.000000 82.000000
-20.274000 37.421000 0.520000 83.000000 80.000000 75.000000
-20.097000 37.447000 0.534000 22.000000 24.000000 23.000000
-20.275000 37.413000 0.501000 88.000000 85.000000 80.000000
-20.323000 37.415000 0.520000 80.000000 77.000000 70.000000
-20.165000 37.422000 0.489000 91.000000 88.000000 83.000000
-20.153000 37.424000 0.491000 88.000000 85.000000 78.000000
-20.288000 37.414000 0.507000 86.000000 86.000000 78.000000
-20.285000 37.417000 0.513000 79.000000 79.000000 71.000000
-20.163000 37.405000 0.447000 81.000000 79.000000 80.000000
-20.195000 37.415000 0.483000 92.000000 89.000000 82.000000
-20.186000 37.407000 0.458000 91.000000 87.000000 84.000000
-20.122000 37.439000 0.520000 83.000000 82.000000 77.000000
-20.188000 37.403000 0.450000 92.000000 89.000000 84.000000
-20.150000 37.431000 0.509000 99.000000 96.000000 89.000000
-20.147000 37.415000 0.469000 92.000000 91.000000 87.000000
-20.173000 37.422000 0.494000 90.000000 87.000000 82.000000
-20.203000 37.411000 0.474000 86.000000 82.000000 79.000000
-20.155000 37.438000 0.527000 76.000000 73.000000 64.000000
-20.219000 37.417000 0.493000 100.000000 97.000000 92.000000
-20.222000 37.416000 0.493000 99.000000 96.000000 91.000000
-20.179000 37.407000 0.457000 90.000000 86.000000 83.000000
-20.266000 37.421000 0.517000 85.000000 82.000000 77.000000
-20.109000 37.443000 0.527000 52.000000 52.000000 50.000000
-20.198000 37.411000 0.473000 85.000000 81.000000 78.000000
-20.163000 37.431000 0.511000 100.000000 97.000000 88.000000
-20.129000 37.441000 0.528000 61.000000 60.000000 55.000000
-20.244000 37.411000 0.487000 97.000000 94.000000 89.000000
-20.163000 37.433000 0.518000 103.000000 100.000000 91.000000
-20.169000 37.429000 0.508000 93.000000 90.000000 81.000000
-20.207000 37.407000 0.466000 84.000000 80.000000 77.000000
-20.145000 37.424000 0.490000 95.000000 90.000000 84.000000
-20.274000 37.420000 0.519000 83.000000 80.000000 75.000000
-20.175000 37.428000 0.508000 91.000000 88.000000 79.000000
-20.176000 37.410000 0.464000 87.000000 83.000000 80.000000
-20.185000 37.416000 0.481000 87.000000 84.000000 79.000000
-20.292000 37.415000 0.511000 81.000000 81.000000 73.000000
-20.141000 37.426000 0.495000 94.000000 90.000000 81.000000
-20.203000 37.423000 0.505000 94.000000 91.000000 84.000000
-20.127000 37.426000 0.489000 96.000000 93.000000 88.000000
-20.157000 37.410000 0.459000 87.000000 83.000000 80.000000
-20.237000 37.408000 0.477000 92.000000 91.000000 86.000000
-20.156000 37.411000 0.460000 92.000000 88.000000 85.000000
-20.187000 37.433000 0.524000 100.000000 97.000000 92.000000
-20.222000 37.418000 0.497000 95.000000 92.000000 87.000000
-20.151000 37.412000 0.460000 89.000000 85.000000 82.000000
-20.272000 37.418000 0.513000 83.000000 80.000000 75.000000
-20.207000 37.407000 0.466000 83.000000 79.000000 76.000000
-20.261000 37.420000 0.514000 83.000000 80.000000 75.000000
-20.147000 37.429000 0.503000 97.000000 94.000000 87.000000
-20.195000 37.416000 0.485000 94.000000 91.000000 84.000000
-20.266000 37.420000 0.517000 85.000000 82.000000 77.000000
-20.218000 37.419000 0.498000 97.000000 94.000000 89.000000
-20.124000 37.436000 0.514000 105.000000 102.000000 97.000000
-20.128000 37.438000 0.520000 88.000000 87.000000 82.000000
-20.216000 37.417000 0.493000 98.000000 95.000000 90.000000
-20.160000 37.427000 0.500000 97.000000 94.000000 85.000000
-20.167000 37.435000 0.523000 96.000000 93.000000 86.000000
-20.156000 37.424000 0.494000 91.000000 88.000000 81.000000
-20.143000 37.416000 0.469000 92.000000 91.000000 87.000000
-20.325000 37.414000 0.517000 85.000000 80.000000 74.000000
-20.155000 37.417000 0.475000 91.000000 88.000000 83.000000
-20.253000 37.420000 0.512000 84.000000 81.000000 76.000000
-20.131000 37.440000 0.526000 65.000000 65.000000 57.000000
-20.171000 37.424000 0.497000 97.000000 94.000000 85.000000
-20.298000 37.416000 0.515000 82.000000 79.000000 72.000000
-20.204000 37.423000 0.504000 94.000000 91.000000 84.000000
-20.211000 37.404000 0.460000 86.000000 82.000000 79.000000
-20.183000 37.414000 0.476000 89.000000 85.000000 82.000000
-20.194000 37.403000 0.450000 90.000000 87.000000 82.000000
-20.303000 37.418000 0.521000 82.000000 77.000000 71.000000
-20.336000 37.415000 0.523000 134.000000 132.000000 120.000000
-20.238000 37.424000 0.517000 90.000000 87.000000 82.000000
-20.156000 37.439000 0.531000 84.000000 81.000000 72.000000
-20.207000 37.429000 0.519000 86.000000 83.000000 76.000000
-20.219000 37.424000 0.512000 95.000000 92.000000 85.000000
-20.226000 37.417000 0.496000 94.000000 91.000000 86.000000
-20.234000 37.427000 0.524000 98.000000 95.000000 90.000000
-20.210000 37.428000 0.518000 90.000000 87.000000 80.000000
-20.195000 37.414000 0.480000 90.000000 87.000000 82.000000
-20.255000 37.413000 0.494000 91.000000 88.000000 83.000000
-20.244000 37.408000 0.479000 90.000000 89.000000 84.000000
-20.147000 37.420000 0.481000 91.000000 88.000000 83.000000
-20.218000 37.411000 0.478000 93.000000 90.000000 85.000000
-20.143000 37.412000 0.460000 90.000000 89.000000 87.000000
-20.138000 37.428000 0.497000 96.000000 92.000000 83.000000
-20.315000 37.412000 0.511000 85.000000 80.000000 74.000000
-20.170000 37.405000 0.450000 82.000000 79.000000 74.000000
-20.296000 37.411000 0.502000 88.000000 85.000000 78.000000
-20.135000 37.435000 0.514000 103.000000 100.000000 93.000000
-20.137000 37.441000 0.529000 62.000000 59.000000 50.000000
-20.124000 37.438000 0.519000 100.000000 99.000000 94.000000
-20.208000 37.421000 0.500000 97.000000 94.000000 87.000000
-20.190000 37.434000 0.528000 109.000000 106.000000 101.000000
-20.125000 37.429000 0.495000 95.000000 90.000000 84.000000
-20.192000 37.427000 0.512000 93.000000 90.000000 83.000000
-20.184000 37.407000 0.459000 89.000000 85.000000 82.000000
-20.147000 37.429000 0.503000 97.000000 94.000000 87.000000
-20.205000 37.418000 0.492000 92.000000 89.000000 84.000000
-20.244000 37.413000 0.490000 96.000000 93.000000 88.000000
-20.180000 37.416000 0.480000 89.000000 86.000000 81.000000
-20.200000 37.425000 0.509000 93.000000 90.000000 83.000000
-20.162000 37.420000 0.484000 87.000000 84.000000 79.000000
-20.236000 37.421000 0.510000 85.000000 82.000000 77.000000
-20.165000 37.399000 0.434000 83.000000 83.000000 85.000000
-20.200000 37.428000 0.516000 89.000000 86.000000 79.000000
-20.123000 37.442000 0.529000 28.000000 27.000000 22.000000
-20.133000 37.431000 0.505000 92.000000 89.000000 82.000000
-20.236000 37.413000 0.490000 97.000000 94.000000 89.000000
-20.153000 37.414000 0.468000 96.000000 92.000000 89.000000
-20.198000 37.408000 0.466000 86.000000 82.000000 79.000000
-20.205000 37.426000 0.513000 92.000000 89.000000 82.000000
-20.212000 37.428000 0.519000 91.000000 88.000000 81.000000
-20.292000 37.414000 0.508000 84.000000 84.000000 76.000000
-20.235000 37.420000 0.506000 90.000000 87.000000 82.000000
-20.255000 37.408000 0.482000 97.000000 94.000000 89.000000
-20.370000 37.411000 0.663000 68.000000 69.000000 64.000000
-20.358000 37.412000 0.662000 72.000000 73.000000 68.000000
-20.373000 37.405000 0.643000 123.000000 123.000000 121.000000
-20.367000 37.414000 0.672000 88.000000 91.000000 84.000000
-20.365000 37.415000 0.676000 102.000000 105.000000 98.000000
-20.372000 37.412000 0.668000 77.000000 79.000000 74.000000
-20.378000 37.407000 0.654000 75.000000 76.000000 71.000000
-20.368000 37.408000 0.653000 79.000000 80.000000 75.000000
-20.365000 37.415000 0.675000 89.000000 92.000000 85.000000
-20.361000 37.409000 0.653000 87.000000 88.000000 83.000000
-20.360000 37.413000 0.667000 67.000000 69.000000 64.000000
-20.364000 37.403000 0.713000 130.000000 127.000000 118.000000
-20.371000 37.408000 0.700000 129.000000 129.000000 121.000000
-20.380000 37.403000 0.712000 131.000000 128.000000 119.000000
-20.369000 37.407000 0.701000 128.000000 128.000000 120.000000
-20.354000 37.415000 0.679000 97.000000 100.000000 93.000000
-20.354000 37.414000 0.681000 109.000000 112.000000 105.000000
-20.371000 37.400000 0.721000 127.000000 124.000000 117.000000
-20.367000 37.412000 0.686000 131.000000 132.000000 126.000000
-20.364000 37.410000 0.693000 134.000000 135.000000 127.000000
-20.375000 37.397000 0.730000 133.000000 128.000000 122.000000
-20.358000 37.332000 0.642000 52.000000 50.000000 51.000000
-20.353000 37.361000 0.653000 65.000000 63.000000 64.000000
-20.360000 37.387000 0.649000 71.000000 71.000000 69.000000
-20.358000 37.333000 0.642000 52.000000 50.000000 51.000000
-20.361000 37.392000 0.649000 83.000000 84.000000 79.000000
-20.358000 37.373000 0.649000 62.000000 62.000000 60.000000
-20.356000 37.407000 0.658000 79.000000 81.000000 78.000000
-20.361000 37.381000 0.647000 58.000000 58.000000 56.000000
-20.355000 37.332000 0.645000 51.000000 49.000000 50.000000
-20.355000 37.399000 0.657000 74.000000 76.000000 73.000000
-20.366000 37.357000 0.637000 57.000000 57.000000 57.000000
-20.359000 37.383000 0.649000 60.000000 62.000000 59.000000
-20.355000 37.382000 0.654000 66.000000 71.000000 65.000000
-20.360000 37.343000 0.642000 55.000000 55.000000 55.000000
-20.363000 37.379000 0.645000 56.000000 56.000000 56.000000
-20.363000 37.361000 0.642000 59.000000 60.000000 55.000000
-20.363000 37.377000 0.645000 58.000000 58.000000 58.000000
-20.370000 37.400000 0.640000 131.000000 132.000000 126.000000
-20.356000 37.406000 0.657000 79.000000 81.000000 78.000000
-20.367000 37.392000 0.643000 91.000000 92.000000 87.000000
-20.372000 37.401000 0.639000 131.000000 132.000000 126.000000
-20.191000 36.882000 0.445000 78.000000 76.000000 79.000000
-20.238000 36.903000 0.441000 69.000000 73.000000 72.000000
-20.240000 36.878000 0.442000 72.000000 72.000000 74.000000
-20.234000 36.905000 0.441000 69.000000 73.000000 72.000000
-20.233000 36.881000 0.442000 73.000000 73.000000 75.000000
-20.232000 36.879000 0.442000 73.000000 73.000000 75.000000
-20.256000 36.910000 0.440000 67.000000 71.000000 70.000000
-20.157000 36.897000 0.447000 78.000000 73.000000 77.000000
-20.233000 36.885000 0.442000 74.000000 74.000000 76.000000
-20.192000 36.911000 0.444000 77.000000 77.000000 77.000000
-20.173000 36.885000 0.446000 78.000000 76.000000 79.000000
-20.142000 36.874000 0.449000 81.000000 79.000000 82.000000
-20.144000 36.884000 0.448000 79.000000 77.000000 82.000000
-20.223000 36.919000 0.442000 72.000000 74.000000 73.000000
-20.208000 36.918000 0.443000 75.000000 75.000000 75.000000
-20.186000 36.872000 0.446000 78.000000 76.000000 79.000000
-20.162000 36.894000 0.447000 77.000000 75.000000 78.000000
-20.227000 36.909000 0.442000 71.000000 73.000000 72.000000
-20.218000 36.870000 0.444000 76.000000 74.000000 75.000000
-20.218000 36.917000 0.442000 73.000000 75.000000 74.000000
-20.165000 36.876000 0.447000 78.000000 76.000000 79.000000
-20.160000 36.874000 0.448000 80.000000 78.000000 83.000000
-20.189000 36.908000 0.444000 78.000000 78.000000 78.000000
-20.148000 36.882000 0.448000 80.000000 78.000000 83.000000
-20.209000 36.910000 0.443000 74.000000 74.000000 74.000000
-20.177000 36.909000 0.445000 78.000000 78.000000 78.000000
-20.239000 36.907000 0.441000 69.000000 73.000000 72.000000
-20.226000 36.880000 0.443000 74.000000 74.000000 76.000000
-20.207000 36.916000 0.443000 75.000000 75.000000 75.000000
-20.204000 36.881000 0.444000 77.000000 75.000000 78.000000
-20.228000 36.924000 0.441000 72.000000 74.000000 73.000000
-20.249000 36.904000 0.440000 68.000000 72.000000 71.000000
-20.202000 36.870000 0.445000 76.000000 74.000000 77.000000
-20.220000 36.912000 0.442000 72.000000 74.000000 73.000000
-20.183000 36.876000 0.446000 78.000000 76.000000 79.000000
-20.180000 36.911000 0.445000 78.000000 78.000000 78.000000
-20.226000 36.900000 0.442000 72.000000 74.000000 73.000000
-20.240000 36.900000 0.441000 69.000000 73.000000 72.000000
-20.127000 36.868000 0.450000 81.000000 80.000000 78.000000
-20.198000 36.894000 0.444000 77.000000 77.000000 77.000000
-20.200000 36.888000 0.444000 77.000000 77.000000 79.000000
-20.184000 36.884000 0.446000 78.000000 76.000000 79.000000
-20.245000 36.881000 0.441000 71.000000 71.000000 73.000000
-20.215000 36.870000 0.444000 76.000000 74.000000 75.000000
-20.209000 36.930000 0.442000 75.000000 75.000000 75.000000
-20.226000 36.913000 0.442000 71.000000 73.000000 72.000000
-20.229000 36.911000 0.441000 71.000000 73.000000 72.000000
-20.241000 36.923000 0.440000 68.000000 72.000000 71.000000
-20.195000 36.879000 0.445000 77.000000 75.000000 78.000000
-20.241000 36.881000 0.442000 72.000000 72.000000 74.000000
-20.213000 36.882000 0.444000 75.000000 75.000000 77.000000
-20.181000 36.883000 0.446000 78.000000 76.000000 79.000000
-20.229000 36.871000 0.443000 75.000000 73.000000 74.000000
-20.191000 36.879000 0.445000 77.000000 75.000000 78.000000
-20.226000 36.877000 0.443000 74.000000 74.000000 76.000000
-20.187000 36.913000 0.444000 78.000000 78.000000 78.000000
-20.238000 36.924000 0.440000 71.000000 73.000000 72.000000
-20.222000 36.885000 0.443000 75.000000 75.000000 77.000000
-20.258000 36.899000 0.440000 67.000000 71.000000 70.000000
-20.230000 36.924000 0.441000 71.000000 73.000000 72.000000
-20.162000 36.888000 0.447000 77.000000 75.000000 80.000000
-20.141000 36.874000 0.449000 80.000000 78.000000 81.000000
-20.235000 36.901000 0.441000 70.000000 74.000000 73.000000
-20.218000 36.899000 0.443000 73.000000 75.000000 74.000000
-20.168000 36.874000 0.447000 79.000000 77.000000 80.000000
-20.203000 36.917000 0.443000 75.000000 75.000000 75.000000
-20.154000 36.932000 0.443000 77.000000 77.000000 77.000000
-20.127000 36.881000 0.449000 80.000000 78.000000 81.000000
-20.193000 36.950000 0.441000 79.000000 79.000000 79.000000
-20.144000 36.946000 0.441000 77.000000 77.000000 77.000000
-20.219000 36.946000 0.441000 74.000000 74.000000 72.000000
-20.124000 36.912000 0.445000 74.000000 74.000000 76.000000
-20.134000 36.891000 0.448000 78.000000 76.000000 79.000000
-20.147000 36.951000 0.441000 78.000000 78.000000 78.000000
-20.150000 36.906000 0.446000 76.000000 76.000000 76.000000
-20.132000 36.914000 0.445000 75.000000 75.000000 77.000000
-20.159000 36.910000 0.446000 76.000000 76.000000 76.000000
-20.142000 36.904000 0.446000 75.000000 75.000000 75.000000
-20.137000 36.904000 0.446000 76.000000 76.000000 78.000000
-20.115000 36.878000 0.450000 76.000000 74.000000 75.000000
-20.125000 36.932000 0.443000 74.000000 74.000000 72.000000
-20.134000 36.955000 0.440000 77.000000 77.000000 79.000000
-20.165000 36.908000 0.446000 77.000000 77.000000 77.000000
-20.167000 36.933000 0.443000 78.000000 78.000000 78.000000
-20.172000 36.948000 0.441000 80.000000 80.000000 80.000000
-20.187000 36.939000 0.442000 78.000000 78.000000 78.000000
-20.156000 36.925000 0.444000 77.000000 77.000000 77.000000
-20.178000 36.947000 0.441000 80.000000 80.000000 80.000000
-20.173000 36.919000 0.444000 79.000000 79.000000 79.000000
-20.107000 36.872000 0.450000 76.000000 75.000000 73.000000
-20.148000 36.951000 0.441000 78.000000 78.000000 78.000000
-20.116000 36.905000 0.446000 75.000000 74.000000 79.000000
-20.141000 36.940000 0.442000 77.000000 77.000000 77.000000
-20.115000 36.901000 0.447000 75.000000 74.000000 79.000000
-20.142000 36.956000 0.440000 77.000000 76.000000 81.000000
-20.180000 36.950000 0.441000 80.000000 80.000000 80.000000
-20.119000 36.908000 0.446000 74.000000 74.000000 76.000000
-20.209000 36.948000 0.441000 77.000000 76.000000 74.000000
-20.191000 36.946000 0.441000 79.000000 79.000000 79.000000
-20.142000 36.946000 0.441000 76.000000 76.000000 76.000000
-20.117000 36.880000 0.450000 78.000000 76.000000 79.000000
-20.187000 36.932000 0.443000 77.000000 77.000000 77.000000
-20.133000 36.907000 0.446000 75.000000 75.000000 77.000000
-20.154000 36.946000 0.441000 78.000000 78.000000 78.000000
-20.180000 36.931000 0.443000 78.000000 78.000000 78.000000
-20.143000 36.917000 0.445000 76.000000 76.000000 76.000000
-20.170000 36.919000 0.444000 78.000000 78.000000 78.000000
-20.132000 36.918000 0.445000 75.000000 75.000000 75.000000
-20.191000 36.945000 0.441000 79.000000 79.000000 79.000000
-20.147000 36.944000 0.441000 77.000000 77.000000 77.000000
-20.145000 36.890000 0.448000 77.000000 75.000000 78.000000
-20.175000 36.932000 0.443000 78.000000 78.000000 78.000000
-20.125000 36.913000 0.445000 74.000000 74.000000 76.000000
-20.173000 36.926000 0.444000 79.000000 79.000000 79.000000
-19.984000 37.392000 0.443000 98.000000 99.000000 94.000000
-20.038000 37.434000 0.461000 63.000000 65.000000 64.000000
-20.068000 37.461000 0.459000 39.000000 40.000000 34.000000
-20.030000 37.428000 0.461000 8.000000 10.000000 9.000000
-20.036000 37.440000 0.428000 9.000000 9.000000 7.000000
-20.014000 37.413000 0.464000 83.000000 82.000000 80.000000
-20.002000 37.411000 0.426000 85.000000 85.000000 83.000000
-20.067000 37.461000 0.455000 43.000000 45.000000 40.000000
-20.021000 37.430000 0.415000 95.000000 98.000000 91.000000
-20.037000 37.444000 0.417000 9.000000 9.000000 7.000000
-19.982000 37.386000 0.460000 49.000000 49.000000 51.000000
-20.045000 37.444000 0.446000 14.000000 15.000000 17.000000
-20.019000 37.417000 0.467000 75.000000 74.000000 72.000000
-20.017000 37.414000 0.469000 77.000000 75.000000 76.000000
-20.001000 37.402000 0.466000 72.000000 72.000000 72.000000
-20.054000 37.452000 0.449000 12.000000 17.000000 13.000000
-20.046000 37.448000 0.433000 35.000000 36.000000 40.000000
-19.982000 37.390000 0.443000 91.000000 92.000000 87.000000
-19.972000 37.380000 0.447000 90.000000 90.000000 88.000000
-19.983000 37.389000 0.450000 97.000000 97.000000 95.000000
-19.983000 37.386000 0.462000 65.000000 65.000000 67.000000
-19.986000 37.390000 0.457000 72.000000 72.000000 72.000000
-19.992000 37.399000 0.443000 86.000000 89.000000 80.000000
-20.026000 37.428000 0.444000 29.000000 30.000000 32.000000
-19.981000 37.385000 0.463000 65.000000 65.000000 67.000000
-20.005000 37.405000 0.465000 90.000000 90.000000 90.000000
-20.031000 37.436000 0.427000 26.000000 27.000000 21.000000
-19.996000 37.397000 0.468000 81.000000 81.000000 81.000000
-20.026000 37.426000 0.453000 23.000000 24.000000 26.000000
-20.029000 37.426000 0.464000 80.000000 82.000000 81.000000
-19.980000 37.387000 0.448000 96.000000 96.000000 94.000000
-20.019000 37.418000 0.464000 77.000000 76.000000 74.000000
-20.035000 37.431000 0.467000 60.000000 60.000000 58.000000
-19.970000 37.379000 0.444000 89.000000 89.000000 87.000000
-20.067000 37.460000 0.461000 143.000000 144.000000 138.000000
-20.007000 37.409000 0.456000 19.000000 20.000000 15.000000
-20.004000 37.410000 0.439000 66.000000 68.000000 55.000000
-20.029000 37.425000 0.468000 77.000000 77.000000 75.000000
-20.049000 37.447000 0.449000 11.000000 15.000000 14.000000
-20.008000 37.416000 0.427000 89.000000 89.000000 89.000000
-19.972000 37.376000 0.465000 57.000000 57.000000 57.000000
-19.993000 37.398000 0.450000 53.000000 55.000000 50.000000
-19.966000 37.375000 0.448000 95.000000 95.000000 93.000000
-19.943000 37.351000 0.466000 53.000000 52.000000 57.000000
-19.959000 37.368000 0.449000 96.000000 97.000000 92.000000
-19.994000 37.402000 0.437000 91.000000 95.000000 80.000000
-20.009000 37.415000 0.432000 78.000000 79.000000 74.000000
-20.036000 37.433000 0.460000 23.000000 25.000000 24.000000
-19.982000 37.384000 0.467000 72.000000 72.000000 74.000000
-20.073000 37.467000 0.455000 85.000000 87.000000 82.000000
-20.083000 37.474000 0.463000 143.000000 143.000000 133.000000
-20.018000 37.420000 0.448000 22.000000 23.000000 17.000000
-19.961000 37.370000 0.448000 96.000000 97.000000 92.000000
-20.051000 37.449000 0.448000 10.000000 14.000000 13.000000
-20.010000 37.416000 0.436000 62.000000 63.000000 57.000000
-19.977000 37.382000 0.457000 62.000000 62.000000 62.000000
-20.043000 37.442000 0.447000 15.000000 16.000000 18.000000
-20.024000 37.431000 0.424000 82.000000 85.000000 78.000000
-20.038000 37.446000 0.411000 17.000000 17.000000 15.000000
-20.013000 37.421000 0.425000 91.000000 91.000000 91.000000
-20.021000 37.424000 0.441000 27.000000 26.000000 21.000000
-19.924000 37.333000 0.468000 55.000000 54.000000 52.000000
-20.062000 37.459000 0.447000 16.000000 21.000000 17.000000
-20.002000 37.410000 0.432000 95.000000 96.000000 88.000000
-20.063000 37.461000 0.439000 21.000000 23.000000 20.000000
-19.994000 37.400000 0.447000 76.000000 79.000000 72.000000
-19.992000 37.398000 0.447000 76.000000 79.000000 72.000000
-20.003000 37.403000 0.466000 97.000000 97.000000 97.000000
-19.964000 37.373000 0.446000 93.000000 93.000000 91.000000
-19.960000 37.370000 0.446000 92.000000 93.000000 88.000000
-20.008000 37.417000 0.422000 85.000000 85.000000 85.000000
-19.934000 37.342000 0.470000 48.000000 48.000000 50.000000
-19.970000 37.377000 0.450000 97.000000 97.000000 95.000000
-20.004000 37.404000 0.465000 97.000000 97.000000 97.000000
-20.029000 37.419000 0.482000 85.000000 84.000000 80.000000
-20.026000 37.419000 0.476000 73.000000 72.000000 68.000000
-20.049000 37.419000 0.516000 96.000000 91.000000 87.000000
-20.032000 37.406000 0.512000 84.000000 83.000000 81.000000
-20.082000 37.445000 0.521000 31.000000 28.000000 23.000000
-20.070000 37.444000 0.503000 88.000000 89.000000 84.000000
-20.067000 37.433000 0.520000 93.000000 91.000000 79.000000
-20.013000 37.398000 0.495000 83.000000 83.000000 83.000000
-20.012000 37.402000 0.485000 75.000000 71.000000 70.000000
-20.067000 37.438000 0.509000 105.000000 106.000000 101.000000
-20.087000 37.474000 0.472000 141.000000 141.000000 131.000000
-20.000000 37.397000 0.475000 88.000000 86.000000 87.000000
-19.968000 37.370000 0.474000 79.000000 79.000000 79.000000
-19.975000 37.372000 0.480000 63.000000 63.000000 61.000000
-19.988000 37.376000 0.496000 86.000000 83.000000 78.000000
-20.082000 37.449000 0.514000 12.000000 17.000000 13.000000
-19.981000 37.371000 0.493000 69.000000 68.000000 63.000000
-20.019000 37.401000 0.501000 83.000000 82.000000 80.000000
-20.055000 37.435000 0.494000 89.000000 90.000000 85.000000
-20.055000 37.421000 0.522000 95.000000 90.000000 86.000000
-19.984000 37.376000 0.489000 72.000000 71.000000 66.000000
-20.069000 37.437000 0.513000 95.000000 95.000000 87.000000
-20.050000 37.437000 0.481000 83.000000 84.000000 78.000000
-19.993000 37.380000 0.497000 79.000000 76.000000 71.000000
-20.039000 37.431000 0.475000 78.000000 79.000000 74.000000
-20.047000 37.432000 0.487000 92.000000 93.000000 87.000000
-20.048000 37.440000 0.474000 64.000000 65.000000 59.000000
-20.071000 37.440000 0.512000 97.000000 97.000000 89.000000
-20.088000 37.458000 0.506000 130.000000 135.000000 131.000000
-20.059000 37.433000 0.506000 87.000000 87.000000 85.000000
-20.034000 37.426000 0.475000 79.000000 80.000000 75.000000
-19.929000 37.337000 0.473000 55.000000 54.000000 52.000000
-20.043000 37.434000 0.476000 67.000000 68.000000 62.000000
-20.090000 37.452000 0.521000 28.000000 26.000000 27.000000
-20.020000 37.402000 0.501000 85.000000 84.000000 82.000000
-20.066000 37.456000 0.471000 132.000000 133.000000 125.000000
-19.998000 37.395000 0.475000 93.000000 91.000000 92.000000
-20.031000 37.412000 0.499000 82.000000 84.000000 81.000000
-19.982000 37.373000 0.491000 74.000000 71.000000 66.000000
-20.086000 37.445000 0.528000 44.000000 43.000000 38.000000
-19.987000 37.384000 0.478000 76.000000 76.000000 76.000000
-20.019000 37.404000 0.493000 80.000000 82.000000 81.000000
-20.074000 37.453000 0.492000 50.000000 50.000000 42.000000
-19.994000 37.392000 0.474000 85.000000 85.000000 85.000000
-19.966000 37.366000 0.479000 74.000000 74.000000 74.000000
-20.049000 37.426000 0.501000 91.000000 92.000000 87.000000
-20.063000 37.451000 0.477000 53.000000 53.000000 45.000000
-20.093000 37.452000 0.526000 43.000000 43.000000 43.000000
-20.028000 37.420000 0.478000 79.000000 78.000000 74.000000
-20.044000 37.420000 0.505000 85.000000 87.000000 84.000000
-20.079000 37.466000 0.473000 140.000000 142.000000 129.000000
-20.064000 37.453000 0.473000 66.000000 67.000000 59.000000
-20.027000 37.417000 0.481000 76.000000 75.000000 71.000000
